# .PCD v.7 - Point Cloud Data file format
VERSION .7
FIELDS x y z intensity class
SIZE 4 4 4 4
TYPE F F F F
COUNT 1 1 1 1WIDTH 23953
HEIGHT 1
VIEWPOINT 0 0 0 1 0 0 0
POINTS 1714
DATA ascii
8.281 -2.790 1.881 0.000 0
8.302 -2.783 1.190 3.000 0
8.325 -2.777 1.329 0.000 0
0.000 0.000 0.000 50.000 0
8.356 -2.764 1.611 0.000 0
8.366 -2.757 1.754 39.000 0
8.391 -2.757 1.901 35.000 0
8.413 -2.751 1.203 24.000 0
8.436 -2.745 1.344 10.000 0
8.449 -2.737 1.485 38.000 0
8.479 -2.735 1.631 34.000 0
8.523 -2.738 1.783 8.000 0
16.192 -5.186 3.661 31.000 0
8.522 -2.717 1.216 37.000 0
8.571 -2.718 1.362 24.000 0
0.000 0.000 0.000 50.000 0
16.629 -5.224 3.192 12.000 0
17.000 -5.320 3.548 21.000 0
16.963 -5.290 3.828 25.000 0
20.022 -6.215 2.852 31.000 0
17.065 -5.269 2.708 19.000 0
15.985 -4.911 2.798 14.000 0
16.777 -5.130 3.215 20.000 0
16.615 -5.060 3.461 30.000 0
16.957 -5.145 3.818 45.000 0
20.266 -6.121 2.882 73.000 0
15.894 -4.774 2.517 3.000 0
16.441 -4.912 2.873 17.000 0
16.599 -4.936 3.175 13.000 0
16.537 -4.896 3.438 13.000 0
17.210 -5.076 3.868 8.000 0
22.759 -6.683 3.231 22.000 0
0.000 0.000 0.000 50.000 0
16.629 -4.830 2.901 30.000 0
16.626 -4.805 3.174 2.000 0
16.548 -4.761 3.435 9.000 0
16.588 -4.752 3.722 1.000 0
20.242 -5.772 2.870 75.000 0
17.879 -5.069 2.823 16.000 0
0.000 0.000 0.000 50.000 0
16.019 -4.493 3.054 0.000 0
17.464 -4.875 3.620 25.000 0
17.523 -4.871 3.926 30.000 0
20.544 -5.685 2.909 15.000 0
17.747 -4.881 2.799 48.000 0
17.683 -4.835 3.076 39.000 0
17.655 -4.802 3.361 32.000 0
0.000 0.000 0.000 50.000 0
17.567 -4.733 3.930 33.000 0
17.807 -4.777 2.519 37.000 0
0.000 0.000 0.000 0.000 0
21.563 -5.713 3.747 23.000 0
18.280 -4.816 3.476 6.000 0
20.543 -5.385 4.246 69.000 0
18.044 -4.706 4.031 2.000 0
21.831 -5.669 3.085 13.000 0
0.000 0.000 0.000 50.000 0
21.599 -5.539 3.749 22.000 0
0.000 0.000 0.000 0.000 0
17.225 -4.368 3.556 11.000 0
17.840 -4.502 3.981 14.000 0
21.710 -5.452 3.066 3.000 0
21.758 -5.428 3.421 18.000 0
21.585 -5.351 3.743 1.000 0
17.232 -4.247 3.270 48.000 0
17.252 -4.228 3.558 37.000 0
17.295 -4.216 3.855 10.000 0
74.561 -18.093 10.524 36.000 0
0.000 0.000 0.000 50.000 0
59.701 -14.294 10.346 41.000 0
58.145 -13.836 11.026 21.000 0
16.949 -4.010 3.492 37.000 0
17.369 -4.087 3.868 27.000 0
0.000 0.000 0.000 0.000 0
70.119 -16.302 11.012 21.000 0
60.117 -13.881 10.412 31.000 0
0.000 0.000 0.000 50.000 0
16.870 -3.845 3.473 33.000 0
17.252 -3.910 3.838 30.000 0
91.369 -20.609 12.888 44.000 0
58.109 -13.009 9.123 15.000 0
19.096 -4.245 3.305 1.000 0
16.851 -3.720 3.190 1.000 0
16.775 -3.680 3.451 39.000 0
17.008 -3.708 3.781 37.000 0
0.000 0.000 0.000 50.000 0
19.854 -4.274 3.116 50.000 0
19.822 -4.236 3.429 56.000 0
18.823 -3.995 3.562 41.000 0
18.928 -3.990 3.891 48.000 0
17.327 -3.630 3.849 15.000 0
16.365 -3.410 2.307 2.000 0
60.933 -12.596 9.559 14.000 0
65.109 -13.354 11.260 34.000 0
0.000 0.000 0.000 50.000 0
18.963 -3.834 3.896 51.000 0
18.626 -3.742 4.134 20.000 0
95.889 -19.156 13.520 26.000 0
61.290 -12.142 9.614 46.000 0
55.561 -10.919 9.604 22.000 0
18.621 -3.631 3.520 2.000 0
19.024 -3.683 3.907 49.000 0
16.375 -3.148 3.633 36.000 0
46.456 -8.881 6.549 6.000 0
52.427 -9.934 8.222 24.000 0
0.000 0.000 0.000 50.000 0
55.072 -10.268 10.408 8.000 0
18.192 -3.365 3.734 64.000 0
16.385 -3.008 3.633 40.000 0
70.578 -12.881 9.952 35.000 0
52.320 -9.463 8.205 255.000 0
56.033 -10.045 9.681 14.000 0
18.707 -3.324 3.533 9.000 0
18.273 -3.221 3.749 60.000 0
0.000 0.000 0.000 50.000 0
61.397 -10.677 8.658 20.000 0
18.658 -3.214 2.925 76.000 0
18.256 -3.114 3.154 112.000 0
56.021 -9.474 10.581 13.000 0
16.308 -2.734 3.345 1.000 0
17.801 -2.960 3.944 38.000 0
56.962 -9.409 8.035 44.000 0
70.732 -11.567 11.092 50.000 0
93.632 -15.166 16.174 37.000 0
0.000 0.000 0.000 50.000 0
16.443 -2.615 3.372 6.000 0
16.374 -2.581 3.626 11.000 0
18.671 -2.922 2.634 52.000 0
20.325 -3.148 3.187 3.000 0
20.213 -3.100 3.492 16.000 0
18.171 -2.758 3.430 18.000 0
17.949 -2.698 3.680 49.000 0
16.279 -2.425 3.604 29.000 0
0.000 0.000 0.000 50.000 0
20.536 -3.002 3.221 33.000 0
20.199 -2.922 3.489 48.000 0
14.846 -2.125 2.802 1.000 0
16.464 -2.332 3.375 4.000 0
16.500 -2.314 3.652 34.000 0
18.110 -2.519 2.556 58.000 0
14.401 -1.980 2.259 5.000 0
14.360 -1.952 2.480 4.000 0
14.917 -2.004 2.816 30.000 0
14.010 -1.862 2.871 5.000 0
13.848 -1.821 3.064 2.000 0
0.000 0.000 0.000 50.000 0
14.558 -1.874 2.284 9.000 0
14.433 -1.835 2.493 19.000 0
18.418 -2.314 3.476 61.000 0
14.159 -1.759 2.901 5.000 0
13.917 -1.709 3.079 5.000 0
96.307 -11.722 13.605 28.000 0
63.552 -7.631 9.973 5.000 0
14.497 -1.718 2.504 8.000 0
18.944 -2.216 3.576 1.000 0
14.188 -1.639 2.907 3.000 0
13.697 -1.563 3.030 20.000 0
44.748 -5.056 6.323 7.000 0
0.000 0.000 0.000 50.000 0
14.440 -1.585 2.495 19.000 0
14.904 -1.614 2.813 28.000 0
15.169 -1.621 3.108 5.000 0
13.746 -1.449 3.040 39.000 0
101.988 -10.633 14.416 25.000 0
63.039 -6.475 9.897 28.000 0
13.738 -1.389 2.374 37.000 0
14.837 -1.478 2.801 32.000 0
14.390 -1.412 2.948 9.000 0
0.000 0.000 0.000 50.000 0
103.004 -9.836 14.565 47.000 0
63.205 -5.936 9.925 36.000 0
14.607 -1.349 2.524 14.000 0
13.889 -1.262 2.622 19.000 0
14.285 -1.276 2.926 33.000 0
13.875 -1.220 3.068 20.000 0
102.732 -8.912 14.532 62.000 0
102.698 -8.741 16.132 39.000 0
0.000 0.000 0.000 0.000 0
14.007 -1.150 2.644 29.000 0
0.000 0.000 0.000 50.000 0
13.985 -1.107 3.092 25.000 0
103.396 -8.058 14.631 46.000 0
16.010 -1.223 2.515 0.000 0
14.838 -1.110 2.565 15.000 0
14.325 -1.050 2.704 37.000 0
14.305 -1.028 2.931 27.000 0
14.100 -0.993 3.118 39.000 0
14.909 -1.032 2.110 6.000 0
14.725 -0.997 2.314 8.000 0
14.654 -0.969 2.533 33.000 0
0.000 0.000 0.000 50.000 0
14.255 -0.901 2.920 54.000 0
13.981 -0.863 3.091 37.000 0
14.810 -0.895 2.096 33.000 0
14.740 -0.869 2.316 54.000 0
14.568 -0.837 2.518 45.000 0
14.565 -0.815 2.750 61.000 0
14.367 -0.783 2.943 37.000 0
14.051 -0.746 3.106 39.000 0
14.781 -0.766 2.093 44.000 0
14.845 -0.747 2.333 30.000 0
0.000 0.000 0.000 50.000 0
14.278 -0.676 2.696 35.000 0
14.341 -0.657 2.938 40.000 0
14.527 -0.644 3.211 11.000 0
15.204 -0.654 2.153 10.000 0
14.729 -0.611 2.315 9.000 0
14.588 -0.583 2.522 9.000 0
14.337 -0.552 2.707 33.000 0
13.977 -0.517 2.863 34.000 0
14.254 -0.508 3.151 21.000 0
19.047 -0.653 2.698 18.000 0
0.000 0.000 0.000 50.000 0
14.580 -0.456 2.521 37.000 0
14.600 -0.435 2.756 19.000 0
13.767 -0.390 2.820 33.000 0
14.249 -0.383 3.150 43.000 0
19.145 -0.490 2.712 29.000 0
15.634 -0.376 2.458 4.000 0
0.000 0.000 0.000 50.000 0
14.805 -0.313 2.795 34.000 0
14.427 -0.284 2.955 38.000 0
14.098 -0.257 3.116 21.000 0
19.843 -0.335 2.811 29.000 0
15.865 -0.244 2.494 10.000 0
0.000 0.000 0.000 0.000 0
14.876 -0.185 2.808 22.000 0
14.789 -0.161 3.029 9.000 0
14.218 -0.135 3.143 40.000 0
19.939 -0.161 2.824 38.000 0
15.764 -0.105 2.478 12.000 0
0.000 0.000 0.000 50.000 0
14.415 -0.054 2.721 32.000 0
14.899 -0.033 3.052 13.000 0
14.389 -0.011 3.180 21.000 0
20.521 0.012 2.907 19.000 0
0.000 0.000 0.000 0.000 0
14.310 0.050 2.474 0.000 0
14.883 0.074 2.809 21.000 0
14.970 0.096 3.066 0.000 0
14.552 0.115 3.216 21.000 0
0.000 0.000 0.000 50.000 0
19.701 0.214 3.097 18.000 0
19.900 0.244 3.440 48.000 0
15.098 0.207 2.850 35.000 0
15.022 0.227 3.076 3.000 0
14.542 0.241 3.214 1.000 0
19.633 0.355 2.780 24.000 0
0.000 0.000 0.000 0.000 0
19.794 0.415 3.422 41.000 0
0.000 0.000 0.000 50.000 0
16.162 0.386 3.309 3.000 0
14.474 0.367 3.198 2.000 0
19.081 0.513 2.701 15.000 0
20.387 0.577 3.203 18.000 0
15.806 0.470 2.732 0.000 0
15.179 0.472 2.864 5.000 0
16.146 0.527 3.306 2.000 0
12.393 0.422 2.738 1.000 0
18.122 0.645 2.565 10.000 0
16.438 0.608 2.582 7.000 0
16.148 0.621 2.790 43.000 0
15.971 0.637 3.013 3.000 0
16.429 0.679 3.363 26.000 0
12.411 0.532 2.742 33.000 0
15.654 0.695 2.215 0.000 0
15.551 0.713 2.442 63.000 0
0.000 0.000 0.000 50.000 0
14.920 0.726 2.815 9.000 0
15.346 0.770 3.141 34.000 0
12.257 0.633 2.708 50.000 0
15.695 0.834 2.220 10.000 0
14.865 0.811 2.334 64.000 0
15.567 0.872 2.689 25.000 0
14.798 0.850 2.791 49.000 0
14.566 0.859 2.981 34.000 0
12.296 0.742 2.716 11.000 0
17.953 1.113 2.538 3.000 0
17.937 1.136 2.815 32.000 0
17.969 1.164 3.103 83.000 0
12.209 0.808 2.302 17.000 0
14.437 0.977 2.954 33.000 0
12.281 0.849 2.712 50.000 0
0.000 0.000 0.000 0.000 0
17.481 1.263 2.742 43.000 0
17.486 1.287 3.019 39.000 0
12.172 0.914 2.295 38.000 0
14.685 1.123 3.005 43.000 0
12.206 0.953 2.696 36.000 0
0.000 0.000 0.000 50.000 0
0.000 0.000 0.000 0.000 0
12.264 1.011 2.116 13.000 0
12.254 1.028 2.310 39.000 0
11.295 0.964 2.311 0.000 0
0.000 0.000 0.000 0.000 0
31.955 2.831 4.511 2.000 0
0.000 0.000 0.000 0.000 0
15.573 1.423 2.687 0.000 0
12.127 1.125 2.285 0.000 0
11.246 1.060 2.300 45.000 0
11.439 1.095 2.526 40.000 0
31.946 3.114 4.506 9.000 0
18.948 1.873 2.969 7.000 0
18.415 1.845 3.176 8.000 0
12.151 1.235 2.289 38.000 0
12.206 1.258 2.496 20.000 0
11.336 1.186 2.503 38.000 0
13.567 1.442 1.912 52.000 0
0.000 0.000 0.000 0.000 0
13.672 1.491 2.357 54.000 0
0.000 0.000 0.000 50.000 0
11.401 1.276 2.331 40.000 0
11.561 1.312 2.552 21.000 0
13.801 1.590 1.944 18.000 0
0.000 0.000 0.000 0.000 0
13.720 1.618 2.364 25.000 0
13.615 1.625 2.563 36.000 0
11.476 1.387 2.346 51.000 0
11.587 1.418 2.558 45.000 0
18.532 2.300 2.608 9.000 0
12.099 1.517 1.892 46.000 0
11.992 1.519 2.065 42.000 0
13.816 1.770 2.600 17.000 0
11.647 1.508 2.380 57.000 0
11.813 1.548 2.607 38.000 0
18.929 2.514 2.662 17.000 0
17.811 2.388 2.784 10.000 0
11.998 1.625 2.065 43.000 0
12.085 1.654 2.274 4.000 0
13.019 1.802 2.660 23.000 0
11.865 1.660 2.619 36.000 0
14.402 2.041 2.024 6.000 0
14.368 2.055 2.244 8.000 0
0.000 0.000 0.000 50.000 0
12.075 1.760 2.271 47.000 0
11.913 1.754 2.434 53.000 0
11.481 1.708 2.534 45.000 0
18.067 2.721 2.537 16.000 0
11.826 1.796 1.846 0.000 0
11.840 1.814 2.037 22.000 0
12.037 1.861 2.264 1.000 0
12.501 1.951 2.554 6.000 0
11.493 1.811 2.536 43.000 0
17.201 2.742 2.413 19.000 0
11.593 1.862 1.809 42.000 0
11.862 1.922 2.039 12.000 0
11.805 1.929 2.219 21.000 0
12.006 1.979 2.452 1.000 0
11.597 1.930 2.559 42.000 0
17.131 2.883 2.402 53.000 0
11.491 1.948 1.792 45.000 0
11.714 2.001 2.013 5.000 0
11.792 2.032 2.216 11.000 0
0.000 0.000 0.000 50.000 0
11.720 2.054 2.586 46.000 0
17.120 3.033 2.398 37.000 0
11.880 2.120 1.851 3.000 0
11.708 2.104 2.011 4.000 0
13.937 2.524 2.619 47.000 0
11.572 2.112 2.363 49.000 0
11.644 2.143 2.570 46.000 0
15.021 2.793 2.102 62.000 0
12.140 2.273 1.891 51.000 0
17.109 3.226 2.938 45.000 0
11.781 2.238 2.213 28.000 0
11.623 2.225 2.373 18.000 0
11.695 2.257 2.581 55.000 0
18.874 3.680 2.639 41.000 0
12.308 2.414 1.916 1.000 0
11.923 2.354 2.047 50.000 0
11.505 2.287 2.161 41.000 0
0.000 0.000 0.000 50.000 0
11.756 2.374 2.594 4.000 0
12.448 2.538 1.739 8.000 0
17.716 3.633 2.756 16.000 0
11.986 2.474 2.057 14.000 0
11.463 2.382 2.153 51.000 0
11.713 2.452 2.392 45.000 0
11.658 2.459 2.573 28.000 0
12.504 2.662 1.745 22.000 0
17.603 3.769 2.737 15.000 0
12.240 2.636 2.100 22.000 0
11.658 2.526 2.189 39.000 0
11.624 2.536 2.373 52.000 0
11.716 2.575 2.587 35.000 0
12.555 2.784 1.751 29.000 0
14.618 3.258 2.272 75.000 0
11.797 2.645 2.023 1.000 0
11.935 2.692 2.241 37.000 0
11.722 2.662 2.394 15.000 0
14.610 3.341 3.226 22.000 0
12.613 2.910 1.758 16.000 0
0.000 0.000 0.000 0.000 0
15.758 3.675 2.702 19.000 0
12.241 2.871 2.298 7.000 0
0.000 0.000 0.000 50.000 0
13.931 3.311 3.077 35.000 0
12.631 3.027 1.759 1.000 0
0.000 0.000 0.000 0.000 0
28.161 6.821 4.829 42.000 0
14.712 3.584 2.763 11.000 0
11.685 2.863 2.387 44.000 0
11.810 2.913 2.609 0.000 0
12.678 3.152 1.765 1.000 0
12.590 3.145 1.954 0.000 0
12.355 3.102 2.118 22.000 0
11.405 2.879 2.142 12.000 0
11.934 3.031 2.439 5.000 0
11.830 3.024 2.615 18.000 0
14.412 3.713 2.005 7.000 0
0.000 0.000 0.000 0.000 0
11.683 3.039 2.003 49.000 0
11.430 2.989 2.147 33.000 0
14.508 3.817 2.966 10.000 0
11.584 3.066 2.562 41.000 0
0.000 0.000 0.000 50.000 0
14.413 3.861 2.237 29.000 0
12.834 3.455 2.200 2.000 0
11.422 3.090 2.146 28.000 0
11.101 3.020 2.270 20.000 0
11.691 3.201 2.587 37.000 0
16.166 4.458 2.248 50.000 0
14.369 3.980 2.229 5.000 0
10.916 3.037 1.872 21.000 0
11.082 3.099 2.083 47.000 0
11.036 3.102 2.258 28.000 0
0.000 0.000 0.000 50.000 0
15.988 4.553 2.222 33.000 0
16.637 4.757 2.582 48.000 0
11.136 3.198 1.910 24.000 0
10.991 3.171 2.066 39.000 0
11.136 3.231 2.280 35.000 0
11.575 3.378 2.565 16.000 0
27.390 8.050 3.806 5.000 0
11.200 3.304 1.738 2.000 0
11.071 3.280 1.899 22.000 0
10.956 3.260 2.061 23.000 0
11.338 3.392 2.323 28.000 0
0.000 0.000 0.000 50.000 0
16.414 4.972 2.281 10.000 0
11.205 3.406 1.739 4.000 0
11.287 3.445 1.937 47.000 0
10.851 3.327 2.042 50.000 0
11.204 3.452 2.297 45.000 0
11.357 3.518 2.521 34.000 0
27.302 8.514 3.794 10.000 0
0.000 0.000 0.000 0.000 0
11.224 3.526 1.927 43.000 0
10.853 3.425 2.044 38.000 0
11.169 3.542 2.292 37.000 0
0.000 0.000 0.000 50.000 0
11.277 3.617 1.567 11.000 0
14.042 4.519 2.181 64.000 0
11.193 3.616 1.923 50.000 0
10.900 3.537 2.055 37.000 0
11.163 3.639 2.293 36.000 0
11.384 3.731 2.533 35.000 0
11.213 3.697 1.559 22.000 0
0.000 0.000 0.000 50.000 0
11.494 3.817 1.977 19.000 0
10.976 3.660 2.072 39.000 0
11.595 3.884 2.385 9.000 0
11.283 3.799 2.514 42.000 0
11.206 3.795 1.559 6.000 0
11.451 3.891 1.781 7.000 0
11.218 3.825 1.931 38.000 0
10.954 3.750 2.069 49.000 0
11.028 3.793 2.271 49.000 0
12.034 4.160 2.685 19.000 0
11.429 3.973 1.591 2.000 0
0.000 0.000 0.000 50.000 0
11.278 3.946 1.944 38.000 0
10.739 3.773 2.032 43.000 0
11.026 3.891 2.274 34.000 0
11.249 3.989 2.514 39.000 0
11.946 4.259 1.664 38.000 0
11.967 4.279 1.865 40.000 0
11.634 4.175 2.007 31.000 0
0.000 0.000 0.000 0.000 0
11.388 4.120 2.352 34.000 0
11.019 4.006 2.466 7.000 0
0.000 0.000 0.000 50.000 0
11.871 4.350 1.853 34.000 0
11.815 4.345 2.042 47.000 0
11.762 4.342 2.232 25.000 0
10.829 4.015 2.240 35.000 0
11.842 4.412 2.655 28.000 0
11.986 4.487 1.674 26.000 0
11.326 4.252 1.770 27.000 0
11.750 4.425 2.034 17.000 0
11.729 4.434 2.230 46.000 0
0.000 0.000 0.000 50.000 0
11.617 4.431 2.610 34.000 0
11.056 4.236 1.546 32.000 0
11.235 4.317 1.759 15.000 0
11.360 4.379 1.970 24.000 0
11.631 4.500 2.215 18.000 0
11.160 4.336 2.318 37.000 0
11.497 4.488 2.589 35.000 0
10.923 4.282 1.530 21.000 0
11.439 4.496 1.794 8.000 0
11.197 4.415 1.945 22.000 0
11.588 4.585 2.212 5.000 0
0.000 0.000 0.000 50.000 0
11.416 4.557 2.576 35.000 0
10.955 4.391 1.537 7.000 0
11.265 4.526 1.770 3.000 0
11.228 4.525 1.955 25.000 0
11.565 4.678 2.212 16.000 0
11.355 4.612 2.369 27.000 0
11.063 4.515 2.503 32.000 0
11.433 4.683 1.608 0.000 0
11.043 4.534 1.739 51.000 0
11.024 4.540 1.924 23.000 0
11.559 4.777 2.217 24.000 0
11.308 4.692 2.365 7.000 0
0.000 0.000 0.000 50.000 0
11.283 4.718 1.590 2.000 0
11.134 4.668 1.757 42.000 0
10.966 4.611 1.918 7.000 0
11.607 4.897 2.231 36.000 0
11.205 4.746 2.350 4.000 0
10.960 4.663 2.493 32.000 0
14.543 6.207 2.055 3.000 0
0.000 0.000 0.000 50.000 0
12.013 5.154 2.107 9.000 0
11.350 4.886 2.188 47.000 0
16.395 7.085 3.448 9.000 0
11.017 4.782 2.513 7.000 0
11.757 5.118 1.666 1.000 0
11.485 5.011 1.823 24.000 0
11.860 5.189 2.087 0.000 0
11.470 5.036 2.217 40.000 0
0.000 0.000 0.000 50.000 0
10.672 4.725 2.442 2.000 0
11.114 4.932 1.580 26.000 0
11.381 5.062 1.812 27.000 0
11.757 5.244 2.075 0.000 0
11.306 5.060 2.193 42.000 0
13.994 6.287 2.961 12.000 0
11.606 5.237 2.663 1.000 0
0.000 0.000 0.000 50.000 0
11.480 5.203 1.834 9.000 0
14.178 6.443 2.510 35.000 0
11.120 5.070 2.164 35.000 0
13.961 6.391 2.964 12.000 0
14.700 6.759 3.385 8.000 0
11.083 5.105 1.586 29.000 0
11.465 5.293 1.838 0.000 0
14.200 6.573 2.523 12.000 0
11.080 5.145 2.164 18.000 0
0.000 0.000 0.000 50.000 0
13.926 6.520 3.219 38.000 0
11.565 5.422 1.662 22.000 0
0.000 0.000 0.000 0.000 0
14.472 6.818 2.581 43.000 0
11.701 5.530 2.293 16.000 0
14.207 6.740 3.039 51.000 0
13.989 6.666 3.245 23.000 0
0.000 0.000 0.000 50.000 0
13.687 6.542 2.211 63.000 0
13.636 6.536 2.442 49.000 0
13.668 6.572 2.689 36.000 0
13.817 6.668 2.967 12.000 0
0.000 0.000 0.000 0.000 0
12.191 5.913 1.766 32.000 0
12.318 5.987 1.998 11.000 0
12.160 5.926 2.187 0.000 0
0.000 0.000 0.000 50.000 0
12.031 5.905 2.594 20.000 0
11.942 5.886 2.792 27.000 0
12.131 5.982 1.765 60.000 0
12.105 5.981 1.973 61.000 0
12.060 5.975 2.178 55.000 0
12.005 5.966 2.382 42.000 0
11.949 5.962 2.587 33.000 0
11.898 5.962 2.794 49.000 0
12.133 6.079 1.774 36.000 0
12.080 6.065 1.978 39.000 0
0.000 0.000 0.000 50.000 0
11.985 6.052 2.389 38.000 0
11.959 6.062 2.601 45.000 0
11.903 6.059 2.807 30.000 0
15.375 7.821 2.260 4.000 0
12.154 6.196 2.000 0.000 0
12.091 6.180 2.204 2.000 0
13.265 6.802 2.656 40.000 0
14.759 7.597 3.225 34.000 0
0.000 0.000 0.000 50.000 0
15.356 7.930 2.269 2.000 0
15.435 7.986 2.553 42.000 0
12.886 6.685 2.361 11.000 0
13.257 6.899 2.668 22.000 0
0.000 0.000 0.000 0.000 0
13.216 6.933 3.145 10.000 0
13.619 7.134 2.024 5.000 0
15.652 8.215 2.602 19.000 0
12.802 6.737 2.358 10.000 0
13.030 6.879 2.635 33.000 0
13.306 7.051 2.935 38.000 0
13.077 6.960 3.127 20.000 0
0.000 0.000 0.000 50.000 0
14.306 7.613 2.391 31.000 0
14.272 7.615 2.642 36.000 0
12.986 6.950 2.639 32.000 0
13.153 7.067 2.916 27.000 0
12.988 7.009 3.121 29.000 0
13.518 7.275 2.032 14.000 0
14.103 7.606 2.371 36.000 0
12.675 6.853 2.359 0.000 0
12.777 6.930 2.611 27.000 0
13.068 7.115 2.911 25.000 0
0.000 0.000 0.000 50.000 0
13.480 7.348 2.039 6.000 0
13.537 7.393 2.289 44.000 0
14.252 7.804 2.667 40.000 0
11.289 6.201 2.319 2.000 0
11.458 6.318 2.566 3.000 0
11.278 6.246 2.737 0.000 0
44.383 24.491 6.756 21.000 0
13.427 7.424 2.283 34.000 0
11.247 6.235 2.116 2.000 0
11.263 6.263 2.326 4.000 0
11.422 6.376 2.571 5.000 0
0.000 0.000 0.000 50.000 0
11.657 6.508 1.785 3.000 0
11.627 6.505 1.989 5.000 0
11.252 6.312 2.130 8.000 0
11.251 6.331 2.336 6.000 0
11.442 6.464 2.590 8.000 0
11.170 6.338 2.740 7.000 0
11.667 6.588 1.798 9.000 0
11.625 6.578 2.001 10.000 0
11.245 6.379 2.141 14.000 0
11.260 6.408 2.351 10.000 0
11.479 6.558 2.612 10.000 0
11.130 6.387 2.744 21.000 0
11.653 6.650 1.808 25.000 0
11.597 6.633 2.009 23.000 0
11.200 6.422 2.145 27.000 0
11.227 6.459 2.358 24.000 0
0.000 0.000 0.000 0.000 0
10.926 6.338 2.708 19.000 0
11.638 6.710 1.818 37.000 0
11.461 6.622 1.998 31.000 0
11.186 6.480 2.155 31.000 0
11.216 6.519 2.369 25.000 0
0.000 0.000 0.000 50.000 0
12.223 7.164 3.046 9.000 0
11.611 6.760 1.826 45.000 0
11.288 6.585 1.980 40.000 0
11.207 6.556 2.173 10.000 0
11.141 6.539 2.367 9.000 0
11.483 6.766 2.657 22.000 0
12.218 7.233 3.061 12.000 0
11.598 6.815 1.837 37.000 0
11.580 6.819 2.044 35.000 0
11.220 6.624 2.188 12.000 0
11.012 6.523 2.353 8.000 0
11.532 6.858 2.683 11.000 0
12.252 7.321 3.087 13.000 0
11.545 6.843 1.841 18.000 0
11.587 6.882 2.059 34.000 0
11.354 6.763 2.228 31.000 0
10.909 6.519 2.345 5.000 0
11.336 6.801 2.652 3.000 0
12.273 7.398 3.109 27.000 0
11.354 6.785 1.823 26.000 0
11.579 6.933 2.071 23.000 0
11.614 6.974 2.292 22.000 0
10.906 6.570 2.358 7.000 0
11.395 6.893 2.681 5.000 0
0.000 0.000 0.000 50.000 0
11.298 6.802 1.826 19.000 0
11.476 6.924 2.066 14.000 0
11.640 7.042 2.312 22.000 0
10.865 6.596 2.363 7.000 0
11.985 7.305 2.836 39.000 0
12.289 7.527 3.146 25.000 0
0.000 0.000 0.000 0.000 0
11.448 6.956 2.074 24.000 0
11.769 7.171 2.351 34.000 0
10.883 6.654 2.380 12.000 0
11.870 7.288 2.824 12.000 0
12.193 7.522 3.139 31.000 0
11.343 6.922 1.858 9.000 0
0.000 0.000 0.000 50.000 0
11.653 7.147 2.342 27.000 0
10.903 6.710 2.398 1.000 0
12.371 7.646 2.959 29.000 0
11.961 7.428 3.096 41.000 0
11.271 6.919 1.859 4.000 0
11.363 6.991 2.084 19.000 0
11.700 7.219 2.366 12.000 0
10.994 6.807 2.432 1.000 0
12.366 7.689 2.974 46.000 0
11.641 7.273 3.028 42.000 0
11.313 6.982 1.878 1.000 0
11.380 7.039 2.100 27.000 0
12.385 7.683 2.518 36.000 0
11.112 6.918 2.471 11.000 0
0.000 0.000 0.000 50.000 0
11.550 7.256 3.019 33.000 0
11.313 7.015 1.891 8.000 0
11.371 7.067 2.111 23.000 0
11.599 7.230 2.372 11.000 0
0.000 0.000 0.000 0.000 0
12.278 7.713 2.983 10.000 0
11.648 7.354 3.060 38.000 0
11.321 7.049 1.904 10.000 0
11.480 7.165 2.144 18.000 0
11.612 7.269 2.388 12.000 0
0.000 0.000 0.000 50.000 0
12.188 7.690 2.976 32.000 0
0.000 0.000 0.000 0.000 0
11.355 7.097 1.921 5.000 0
11.569 7.247 2.173 12.000 0
11.651 7.321 2.408 12.000 0
0.000 0.000 0.000 0.000 0
11.818 7.485 2.900 37.000 0
12.050 7.670 3.195 30.000 0
74.122 46.467 12.620 42.000 0
0.000 0.000 0.000 50.000 0
11.498 7.247 2.389 5.000 0
0.000 0.000 0.000 0.000 0
11.763 7.474 2.900 14.000 0
0.000 0.000 0.000 0.000 0
11.905 7.481 2.038 8.000 0
11.548 7.275 2.193 12.000 0
11.495 7.263 2.400 2.000 0
0.000 0.000 0.000 0.000 0
0.000 0.000 0.000 0.000 0
0.000 0.000 0.000 0.000 0
11.411 7.184 1.964 6.000 0
11.585 7.311 2.210 13.000 0
0.000 0.000 0.000 50.000 0
11.914 7.571 2.729 15.000 0
11.789 7.526 2.931 15.000 0
0.000 0.000 0.000 0.000 0
11.338 7.148 1.962 11.000 0
11.598 7.330 2.224 13.000 0
11.360 7.202 2.394 3.000 0
11.962 7.612 2.752 15.000 0
11.835 7.565 2.954 16.000 0
11.414 7.335 3.077 14.000 0
11.342 7.155 1.972 13.000 0
0.000 0.000 0.000 50.000 0
11.490 7.290 2.432 3.000 0
12.050 7.675 2.783 15.000 0
11.940 7.638 2.992 17.000 0
11.497 7.394 3.110 31.000 0
11.329 7.148 1.980 17.000 0
11.496 7.271 2.224 17.000 0
11.443 7.261 2.431 4.000 0
12.116 7.718 2.808 16.000 0
11.925 7.631 2.998 16.000 0
11.493 7.393 3.119 34.000 0
11.338 7.151 1.989 12.000 0
11.601 7.336 2.253 17.000 0
11.323 7.183 2.415 6.000 0
0.000 0.000 0.000 0.000 0
11.942 7.640 3.012 16.000 0
11.518 7.408 3.135 29.000 0
11.592 7.303 2.042 13.000 0
0.000 0.000 0.000 50.000 0
11.458 7.261 2.452 4.000 0
12.640 8.041 2.949 19.000 0
11.959 7.644 3.025 16.000 0
11.685 7.508 3.190 25.000 0
11.776 7.408 2.082 8.000 0
11.602 7.317 2.269 12.000 0
11.421 7.226 2.451 4.000 0
12.511 7.947 2.927 19.000 0
0.000 0.000 0.000 0.000 0
0.000 0.000 0.000 0.000 0
38.714 24.298 6.870 12.000 0
11.623 7.313 2.280 13.000 0
11.481 7.249 2.471 13.000 0
12.495 7.920 2.930 37.000 0
0.000 0.000 0.000 0.000 0
0.000 0.000 0.000 50.000 0
11.338 7.096 2.017 14.000 0
11.641 7.305 2.290 13.000 0
0.000 0.000 0.000 0.000 0
12.522 7.915 2.943 15.000 0
12.024 7.636 3.063 37.000 0
0.000 0.000 0.000 0.000 0
11.362 7.087 2.027 19.000 0
11.586 7.246 2.284 12.000 0
12.617 7.917 2.728 31.000 0
12.586 7.929 2.964 15.000 0
11.620 7.355 2.965 38.000 0
0.000 0.000 0.000 0.000 0
11.311 7.028 2.023 27.000 0
11.542 7.190 2.280 12.000 0
0.000 0.000 0.000 50.000 0
12.654 7.941 2.985 26.000 0
11.726 7.393 2.996 34.000 0
11.905 7.546 3.280 13.000 0
11.338 7.012 2.031 13.000 0
12.389 7.683 2.452 32.000 0
12.414 7.724 2.693 40.000 0
11.330 7.078 2.676 3.000 0
11.746 7.372 3.004 38.000 0
11.255 7.102 3.104 12.000 0
11.380 7.003 2.042 10.000 0
11.588 7.151 2.296 11.000 0
10.946 6.776 2.377 1.000 0
12.386 7.699 2.928 38.000 0
12.021 7.506 3.078 34.000 0
11.555 7.255 3.189 28.000 0
11.372 6.959 2.043 28.000 0
11.642 7.143 2.308 22.000 0
17.119 10.539 3.720 5.000 0
0.000 0.000 0.000 0.000 0
12.057 7.488 3.088 40.000 0
11.462 7.156 3.164 25.000 0
11.405 6.937 2.050 24.000 0
11.685 7.126 2.318 32.000 0
0.000 0.000 0.000 50.000 0
11.727 7.204 2.775 12.000 0
12.237 7.553 3.134 33.000 0
11.415 7.083 3.151 29.000 0
11.483 6.938 2.065 14.000 0
11.622 7.040 2.307 21.000 0
10.874 6.609 2.363 8.000 0
11.983 7.312 2.834 39.000 0
12.283 7.531 3.146 27.000 0
11.357 7.000 3.134 28.000 0
11.574 6.943 2.082 25.000 0
11.594 6.973 2.300 14.000 0
10.899 6.577 2.368 7.000 0
0.000 0.000 0.000 50.000 0
11.921 7.256 3.051 37.000 0
11.394 6.973 3.142 27.000 0
11.581 6.893 2.082 32.000 0
11.158 6.659 2.213 12.000 0
10.957 6.561 2.379 7.000 0
11.441 6.878 2.703 1.000 0
12.169 7.349 3.112 33.000 0
11.406 6.925 3.142 32.000 0
11.538 6.812 2.072 33.000 0
11.100 6.570 2.199 10.000 0
0.000 0.000 0.000 50.000 0
11.546 6.883 2.725 7.000 0
12.336 7.388 3.151 14.000 0
11.453 6.896 3.152 31.000 0
11.296 6.609 2.027 33.000 0
11.048 6.482 2.186 6.000 0
11.207 6.596 2.428 9.000 0
11.544 6.821 2.721 10.000 0
12.430 7.379 3.171 30.000 0
10.946 6.532 3.007 7.000 0
11.349 6.579 2.033 32.000 0
11.163 6.489 2.206 28.000 0
11.253 6.562 2.434 23.000 0
11.781 6.896 2.772 14.000 0
12.198 7.173 3.105 8.000 0
11.031 6.520 3.025 30.000 0
11.436 6.565 2.045 26.000 0
11.188 6.440 2.206 24.000 0
11.252 6.497 2.429 14.000 0
11.161 6.470 2.620 25.000 0
10.980 6.393 2.789 10.000 0
11.152 6.527 3.052 26.000 0
11.405 6.480 2.035 10.000 0
11.223 6.393 2.208 17.000 0
11.271 6.442 2.427 10.000 0
0.000 0.000 0.000 0.000 0
11.139 6.420 2.823 23.000 0
11.185 6.478 3.053 16.000 0
11.406 6.412 2.030 3.000 0
11.240 6.334 2.206 9.000 0
11.303 6.390 2.428 8.000 0
0.000 0.000 0.000 0.000 0
11.194 6.381 2.829 10.000 0
11.383 6.522 3.099 10.000 0
14.020 7.793 2.488 39.000 0
11.236 6.261 2.198 7.000 0
11.307 6.321 2.422 4.000 0
12.734 7.145 2.966 25.000 0
11.228 6.327 2.830 7.000 0
11.422 6.469 3.100 5.000 0
14.150 7.773 2.502 49.000 0
11.345 6.248 2.212 8.000 0
11.339 6.264 2.421 2.000 0
11.478 6.364 2.665 1.000 0
11.220 6.247 2.819 1.000 0
11.895 6.657 3.219 8.000 0
14.200 7.706 2.503 49.000 0
12.596 6.853 2.448 12.000 0
13.087 7.142 2.784 40.000 0
12.916 7.075 2.989 35.000 0
12.863 7.075 3.220 10.000 0
11.811 6.528 3.185 3.000 0
0.000 0.000 0.000 50.000 0
12.787 6.870 2.476 13.000 0
13.177 7.100 2.793 39.000 0
13.003 7.031 2.998 34.000 0
12.953 7.033 3.231 13.000 0
11.897 6.491 3.196 11.000 0
14.347 7.588 2.508 33.000 0
13.326 7.065 2.569 20.000 0
13.249 7.044 2.797 37.000 0
13.097 6.988 3.007 31.000 0
13.042 6.987 3.240 13.000 0
0.000 0.000 0.000 50.000 0
15.641 8.161 2.722 20.000 0
12.870 6.731 2.470 20.000 0
13.253 6.951 2.785 35.000 0
13.189 6.942 3.015 12.000 0
13.106 6.925 3.242 9.000 0
14.632 7.768 3.899 25.000 0
15.413 7.930 2.670 16.000 0
13.295 6.856 2.541 12.000 0
0.000 0.000 0.000 50.000 0
13.262 6.882 3.019 7.000 0
13.181 6.867 3.247 5.000 0
13.583 7.108 3.604 91.000 0
12.056 6.114 2.078 35.000 0
11.990 6.094 2.280 26.000 0
11.961 6.096 2.491 34.000 0
11.921 6.096 2.701 26.000 0
11.921 6.120 2.923 20.000 0
11.845 6.108 3.129 14.000 0
0.000 0.000 0.000 50.000 0
12.011 6.014 2.273 67.000 0
11.976 6.013 2.481 61.000 0
11.917 6.003 2.687 53.000 0
11.858 5.996 2.894 47.000 0
11.786 5.986 3.098 29.000 0
12.123 5.965 2.067 31.000 0
12.080 5.956 2.273 32.000 0
0.000 0.000 0.000 50.000 0
11.938 5.920 2.678 26.000 0
11.899 5.923 2.890 48.000 0
11.816 5.906 3.090 33.000 0
13.435 6.506 2.278 33.000 0
14.152 6.867 2.649 1.000 0
13.999 6.810 2.870 8.000 0
14.886 7.264 3.322 22.000 0
13.785 6.751 3.330 5.000 0
11.934 5.868 3.106 9.000 0
13.527 6.445 2.280 20.000 0
11.627 5.550 2.164 0.000 0
11.673 5.586 2.380 0.000 0
13.451 6.456 2.985 73.000 0
0.000 0.000 0.000 50.000 0
13.481 6.520 3.490 19.000 0
14.217 6.662 2.382 19.000 0
11.606 5.448 2.147 1.000 0
11.549 5.434 2.341 22.000 0
13.969 6.591 3.083 46.000 0
13.927 6.594 3.328 49.000 0
0.000 0.000 0.000 0.000 0
14.256 6.565 2.373 36.000 0
11.620 5.361 2.136 8.000 0
11.097 5.130 2.237 33.000 0
14.034 6.507 3.080 13.000 0
14.051 6.536 3.339 37.000 0
13.856 6.471 3.547 36.000 0
0.000 0.000 0.000 50.000 0
12.130 5.497 2.216 10.000 0
11.199 5.086 2.243 32.000 0
13.968 6.360 3.047 12.000 0
11.637 5.316 2.749 6.000 0
15.558 7.134 3.961 17.000 0
11.363 5.049 1.866 19.000 0
12.098 5.383 2.196 10.000 0
11.455 5.108 2.281 41.000 0
13.909 6.218 3.016 6.000 0
11.272 5.055 2.648 2.000 0
11.584 5.213 2.932 18.000 0
11.329 4.939 1.848 24.000 0
12.229 5.340 2.206 7.000 0
11.601 5.076 2.295 30.000 0
14.478 6.349 3.121 13.000 0
10.797 4.749 2.521 8.000 0
11.280 4.979 2.838 8.000 0
10.857 4.644 1.759 34.000 0
12.022 5.148 2.154 10.000 0
11.373 4.880 2.236 35.000 0
11.113 4.780 2.380 3.000 0
10.813 4.664 2.509 36.000 0
0.000 0.000 0.000 50.000 0
10.896 4.570 1.753 40.000 0
11.635 4.886 2.071 26.000 0
11.453 4.817 2.236 31.000 0
11.262 4.748 2.397 5.000 0
10.804 4.568 2.491 50.000 0
11.047 4.685 2.746 17.000 0
10.955 4.503 1.750 40.000 0
11.071 4.555 1.957 21.000 0
11.544 4.758 2.239 13.000 0
11.143 4.603 2.356 31.000 0
11.012 4.560 2.524 34.000 0
11.061 4.595 2.733 21.000 0
11.209 4.514 1.777 45.000 0
11.501 4.636 2.019 29.000 0
11.529 4.655 2.222 4.000 0
0.000 0.000 0.000 50.000 0
11.187 4.537 2.548 42.000 0
11.230 4.569 2.758 31.000 0
11.195 4.415 1.762 4.000 0
11.192 4.418 1.951 30.000 0
11.811 4.668 2.261 18.000 0
10.728 4.249 2.240 42.000 0
11.478 4.556 2.598 54.000 0
11.354 4.521 2.772 29.000 0
11.208 4.326 1.752 17.000 0
11.410 4.408 1.975 29.000 0
11.583 4.481 2.203 25.000 0
0.000 0.000 0.000 0.000 0
0.000 0.000 0.000 50.000 0
11.707 4.559 2.841 28.000 0
11.230 4.240 1.742 28.000 0
11.792 4.455 2.027 17.000 0
11.613 4.393 2.193 37.000 0
11.304 4.282 2.330 37.000 0
11.681 4.435 2.611 27.000 0
11.719 4.461 2.826 8.000 0
11.866 4.380 1.826 29.000 0
11.808 4.361 2.016 39.000 0
11.838 4.377 2.221 21.000 0
11.267 4.171 2.307 30.000 0
11.018 4.088 2.447 7.000 0
11.981 4.455 2.871 19.000 0
11.901 4.292 1.818 47.000 0
11.547 4.166 1.957 42.000 0
10.840 3.914 2.020 23.000 0
11.773 4.256 2.395 31.000 0
10.864 3.935 2.398 39.000 0
11.543 4.191 2.749 8.000 0
0.000 0.000 0.000 50.000 0
11.392 4.012 1.917 28.000 0
11.284 3.978 2.088 19.000 0
11.076 3.908 2.238 31.000 0
0.000 0.000 0.000 0.000 0
11.231 3.979 2.659 26.000 0
11.338 3.896 1.707 15.000 0
11.321 3.890 1.891 5.000 0
10.999 3.782 2.022 44.000 0
11.131 3.830 2.235 25.000 0
11.420 3.936 2.489 22.000 0
11.419 3.944 2.687 50.000 0
11.343 3.800 1.694 17.000 0
11.692 3.917 1.939 14.000 0
0.000 0.000 0.000 50.000 0
11.049 3.706 2.204 25.000 0
11.373 3.819 2.463 29.000 0
11.216 3.773 2.623 47.000 0
11.312 3.693 1.677 2.000 0
11.753 3.835 1.936 16.000 0
11.367 3.710 2.061 16.000 0
10.924 3.568 2.165 39.000 0
11.435 3.740 2.461 28.000 0
11.329 3.710 2.633 47.000 0
14.114 4.487 2.077 32.000 0
11.236 3.569 1.838 42.000 0
11.243 3.572 2.025 28.000 0
10.905 3.466 2.147 33.000 0
11.245 3.578 2.405 35.000 0
11.262 3.588 2.602 53.000 0
27.146 8.396 3.966 1.000 0
11.182 3.457 1.816 38.000 0
12.569 3.886 2.250 24.000 0
10.914 3.376 2.136 32.000 0
11.098 3.434 2.359 44.000 0
11.523 3.570 2.647 27.000 0
0.000 0.000 0.000 0.000 0
11.203 3.369 1.808 23.000 0
11.224 3.374 1.996 21.000 0
0.000 0.000 0.000 50.000 0
11.514 3.463 2.433 26.000 0
11.605 3.495 2.650 20.000 0
27.316 7.988 3.934 2.000 0
15.074 4.404 2.416 0.000 0
10.868 3.173 1.921 46.000 0
11.031 3.220 2.132 39.000 0
11.206 3.273 2.354 38.000 0
11.655 3.406 2.646 42.000 0
16.289 4.624 2.329 87.000 0
14.385 4.079 2.290 2.000 0
10.904 3.090 1.914 39.000 0
11.247 3.186 2.161 40.000 0
11.182 3.168 2.335 22.000 0
11.872 3.365 2.680 32.000 0
14.520 3.999 2.062 8.000 0
0.000 0.000 0.000 50.000 0
12.800 3.518 2.234 19.000 0
11.492 3.156 2.195 22.000 0
11.171 3.068 2.320 18.000 0
11.569 3.178 2.598 33.000 0
14.476 3.864 2.042 4.000 0
14.232 3.794 2.237 38.000 0
11.588 3.086 2.010 25.000 0
11.397 3.032 2.164 24.000 0
0.000 0.000 0.000 50.000 0
11.575 3.078 2.585 28.000 0
27.800 7.187 3.895 3.000 0
12.533 3.234 1.957 35.000 0
12.339 3.180 2.128 8.000 0
11.379 2.929 2.149 20.000 0
11.898 3.061 2.444 2.000 0
11.946 3.073 2.655 38.000 0
12.695 3.174 1.767 1.000 0
0.000 0.000 0.000 0.000 0
12.319 3.069 2.112 0.000 0
0.000 0.000 0.000 50.000 0
11.692 2.906 2.389 46.000 0
11.641 2.892 2.573 1.000 0
0.000 0.000 0.000 0.000 0
0.000 0.000 0.000 0.000 0
28.136 6.767 4.797 43.000 0
12.227 2.937 2.284 7.000 0
11.720 2.811 2.383 7.000 0
11.781 2.824 2.591 7.000 0
12.618 2.942 1.735 2.000 0
0.000 0.000 0.000 0.000 0
15.702 3.643 2.663 21.000 0
0.000 0.000 0.000 50.000 0
11.724 2.711 2.372 23.000 0
12.004 2.773 2.628 4.000 0
12.555 2.822 1.716 47.000 0
12.611 2.826 1.924 7.000 0
15.710 3.511 2.650 34.000 0
11.802 2.632 2.183 50.000 0
11.657 2.596 2.347 51.000 0
11.677 2.596 2.545 48.000 0
12.503 2.705 1.699 3.000 0
17.533 3.781 2.661 4.000 0
15.941 3.428 2.676 2.000 0
11.755 2.521 2.163 12.000 0
11.674 2.498 2.340 50.000 0
11.689 2.496 2.536 2.000 0
18.358 3.817 2.481 14.000 0
17.748 3.676 2.680 11.000 0
18.226 3.763 3.044 14.000 0
11.712 2.411 2.146 42.000 0
11.275 2.315 2.250 47.000 0
13.666 2.800 2.952 4.000 0
18.170 3.625 2.442 8.000 0
12.345 2.452 1.855 16.000 0
11.936 2.363 1.984 0.000 0
11.538 2.276 2.104 42.000 0
0.000 0.000 0.000 50.000 0
11.696 2.294 2.516 52.000 0
14.984 2.863 2.004 65.000 0
12.105 2.302 1.810 3.000 0
12.227 2.316 2.024 58.000 0
12.146 2.293 2.206 59.000 0
11.888 2.236 2.353 36.000 0
11.589 2.174 2.484 53.000 0
14.143 2.584 1.882 70.000 0
12.105 2.201 1.802 2.000 0
11.583 2.096 1.909 15.000 0
11.712 2.111 2.119 3.000 0
13.898 2.495 2.740 6.000 0
11.479 2.054 2.451 51.000 0
0.000 0.000 0.000 50.000 0
13.927 2.415 2.064 0.000 0
11.475 1.980 1.884 39.000 0
11.585 1.990 2.088 51.000 0
11.971 2.047 2.351 4.000 0
11.666 1.986 2.482 21.000 0
14.632 2.429 1.930 2.000 0
14.609 2.410 2.157 8.000 0
11.716 1.923 1.916 4.000 0
11.702 1.911 2.101 52.000 0
14.140 2.297 2.768 2.000 0
11.722 1.896 2.486 40.000 0
18.299 2.887 2.404 32.000 0
0.000 0.000 0.000 0.000 0
11.805 1.838 1.924 42.000 0
11.971 1.853 2.142 52.000 0
44.410 6.839 8.668 65.000 0
11.723 1.795 2.479 36.000 0
14.395 2.150 1.884 72.000 0
14.354 2.129 2.104 3.000 0
11.899 1.753 1.932 3.000 0
0.000 0.000 0.000 50.000 0
12.104 1.761 2.355 6.000 0
11.574 1.673 2.441 48.000 0
17.431 2.460 2.274 12.000 0
18.132 2.538 2.649 14.000 0
18.422 2.560 2.983 14.000 0
12.135 1.674 2.159 43.000 0
14.103 1.932 2.736 37.000 0
11.637 1.583 2.447 46.000 0
19.073 2.535 2.480 14.000 0
17.813 2.347 2.595 12.000 0
0.000 0.000 0.000 50.000 0
11.993 1.555 2.128 5.000 0
13.785 1.773 2.668 30.000 0
11.545 1.473 2.422 36.000 0
19.422 2.422 2.518 19.000 0
17.729 2.190 2.576 12.000 0
12.199 1.494 1.965 6.000 0
13.691 1.661 2.424 29.000 0
11.351 1.365 2.192 33.000 0
11.363 1.354 2.379 31.000 0
0.000 0.000 0.000 50.000 0
13.717 1.581 1.988 55.000 0
13.620 1.554 2.189 55.000 0
13.651 1.541 2.412 62.000 0
11.673 1.305 2.250 14.000 0
11.205 1.240 2.342 43.000 0
13.777 1.492 1.778 51.000 0
0.000 0.000 0.000 0.000 0
18.952 2.007 3.041 4.000 0
18.372 1.923 3.240 14.000 0
12.114 1.253 2.331 55.000 0
11.753 1.203 2.452 18.000 0
18.463 1.849 2.378 13.000 0
31.952 3.161 4.614 10.000 0
19.098 1.865 3.059 0.000 0
0.000 0.000 0.000 50.000 0
12.172 1.158 2.339 6.000 0
12.221 1.148 2.546 30.000 0
18.433 1.698 2.370 2.000 0
31.959 2.902 4.608 4.000 0
0.000 0.000 0.000 0.000 0
63.522 5.601 11.171 44.000 0
12.266 1.066 2.354 44.000 0
14.574 1.248 3.033 32.000 0
30.811 2.589 3.956 2.000 0
31.992 2.643 4.607 41.000 0
0.000 0.000 0.000 50.000 0
12.186 0.974 2.140 30.000 0
12.154 0.954 2.330 42.000 0
14.518 1.121 3.018 31.000 0
17.541 1.332 2.250 20.000 0
17.511 1.305 2.519 7.000 0
17.466 1.277 2.788 31.000 0
17.445 1.251 3.062 6.000 0
12.218 0.858 2.340 6.000 0
14.394 0.991 2.990 22.000 0
13.178 0.893 1.689 22.000 0
0.000 0.000 0.000 0.000 0
15.520 1.007 2.476 9.000 0
0.000 0.000 0.000 50.000 0
14.781 0.917 2.830 37.000 0
15.029 0.912 3.121 38.000 0
13.224 0.790 1.694 6.000 0
15.625 0.911 2.245 33.000 0
15.250 0.866 2.432 43.000 0
14.825 0.821 2.600 61.000 0
14.604 0.786 2.795 26.000 0
15.308 0.802 3.178 52.000 0
13.245 0.685 1.696 2.000 0
15.686 0.788 2.254 4.000 0
15.476 0.754 2.468 53.000 0
15.458 0.729 2.711 27.000 0
16.047 0.732 3.071 10.000 0
16.379 0.722 3.400 19.000 0
13.217 0.579 1.693 3.000 0
0.000 0.000 0.000 50.000 0
16.407 0.666 2.617 45.000 0
15.739 0.615 2.761 12.000 0
16.229 0.608 3.107 24.000 0
16.087 0.578 3.340 2.000 0
12.901 0.462 1.654 3.000 0
19.059 0.653 2.741 25.000 0
20.099 0.656 3.207 20.000 0
15.948 0.494 2.798 2.000 0
15.126 0.444 2.897 10.000 0
16.137 0.447 3.352 10.000 0
0.000 0.000 0.000 50.000 0
17.565 0.460 2.528 3.000 0
20.477 0.502 3.270 20.000 0
20.135 0.460 3.536 32.000 0
15.028 0.318 2.880 25.000 0
15.991 0.311 3.324 2.000 0
12.992 0.259 1.669 3.000 0
19.672 0.357 2.834 16.000 0
19.976 0.329 3.193 17.000 0
19.862 0.292 3.491 46.000 0
14.920 0.194 2.862 23.000 0
19.814 0.224 4.123 20.000 0
16.273 0.194 2.093 2.000 0
0.000 0.000 0.000 50.000 0
20.586 0.173 3.294 31.000 0
14.222 0.095 2.503 3.000 0
14.996 0.073 2.880 31.000 0
14.877 0.046 3.099 8.000 0
17.696 0.071 2.280 45.000 0
17.726 0.039 2.561 1.000 0
19.016 0.008 3.048 16.000 0
19.931 -0.026 3.512 44.000 0
14.904 -0.047 2.866 28.000 0
14.541 -0.073 3.033 8.000 0
18.595 -0.072 2.401 3.000 0
19.898 -0.113 2.880 36.000 0
15.800 -0.119 2.537 31.000 0
14.541 -0.136 2.567 16.000 0
14.823 -0.167 2.855 35.000 0
14.448 -0.191 3.018 24.000 0
19.835 -0.233 2.566 47.000 0
19.848 -0.270 2.879 32.000 0
15.971 -0.247 2.569 7.000 0
14.543 -0.253 2.572 35.000 0
14.764 -0.285 2.849 50.000 0
13.930 -0.297 2.916 31.000 0
19.155 -0.376 2.485 28.000 0
19.245 -0.415 2.798 18.000 0
15.526 -0.364 2.503 10.000 0
14.705 -0.373 2.606 28.000 0
14.492 -0.397 2.802 21.000 0
13.977 -0.411 2.931 29.000 0
18.924 -0.520 2.462 25.000 0
19.179 -0.564 2.796 15.000 0
15.355 -0.481 2.482 11.000 0
0.000 0.000 0.000 50.000 0
14.227 -0.503 2.757 35.000 0
14.292 -0.535 3.004 28.000 0
14.921 -0.527 1.947 1.000 0
15.543 -0.580 2.272 7.000 0
14.883 -0.586 2.412 13.000 0
14.497 -0.600 2.582 24.000 0
14.120 -0.613 2.744 38.000 0
14.410 -0.656 3.035 34.000 0
14.798 -0.638 1.937 15.000 0
14.942 -0.675 2.191 9.000 0
0.000 0.000 0.000 50.000 0
14.545 -0.718 2.598 37.000 0
14.499 -0.746 2.824 45.000 0
14.202 -0.762 3.000 45.000 0
14.689 -0.749 1.930 27.000 0
14.748 -0.784 2.170 52.000 0
14.727 -0.813 2.401 61.000 0
14.520 -0.832 2.601 34.000 0
14.432 -0.859 2.819 50.000 0
14.132 -0.872 2.993 54.000 0
14.798 -0.871 1.951 21.000 0
15.658 -0.953 2.311 19.000 0
14.703 -0.927 2.405 9.000 0
14.355 -0.936 2.579 36.000 0
14.590 -0.984 2.859 41.000 0
0.000 0.000 0.000 50.000 0
14.809 -0.986 1.960 8.000 0
19.385 -1.333 2.873 38.000 0
14.679 -1.041 2.409 8.000 0
14.296 -1.046 2.577 28.000 0
14.309 -1.079 2.813 37.000 0
14.290 -1.111 3.045 49.000 0
44.225 -3.289 5.880 3.000 0
103.217 -7.907 15.357 35.000 0
14.724 -1.160 2.426 9.000 0
14.433 -1.170 2.611 28.000 0
14.074 -1.173 2.776 27.000 0
14.160 -1.215 3.027 39.000 0
43.906 -3.608 5.863 12.000 0
102.712 -8.668 15.345 46.000 0
14.570 -1.262 2.409 5.000 0
14.320 -1.273 2.600 43.000 0
14.411 -1.317 2.852 9.000 0
14.221 -1.333 3.050 45.000 0
44.193 -3.973 5.929 9.000 0
95.958 -8.839 14.395 31.000 0
14.716 -1.389 2.444 0.000 0
0.000 0.000 0.000 0.000 0
14.527 -1.441 2.886 10.000 0
14.055 -1.429 3.025 32.000 0
103.598 -10.113 13.965 29.000 0
94.108 -9.400 14.182 39.000 0
14.604 -1.492 2.435 26.000 0
14.847 -1.553 2.717 9.000 0
14.668 -1.570 2.925 10.000 0
13.970 -1.530 3.018 26.000 0
102.117 -10.749 13.831 43.000 0
0.000 0.000 0.000 50.000 0
93.829 -10.316 15.714 54.000 0
18.980 -2.134 3.488 1.000 0
14.755 -1.695 2.954 20.000 0
13.976 -1.642 3.030 21.000 0
0.000 0.000 0.000 0.000 0
94.688 -10.917 14.400 60.000 0
14.625 -1.721 2.460 9.000 0
19.963 -2.400 3.683 2.000 0
14.804 -1.818 2.976 10.000 0
13.909 -1.745 3.028 19.000 0
0.000 0.000 0.000 0.000 0
92.646 -11.395 14.160 48.000 0
14.484 -1.817 2.447 29.000 0
20.076 -2.570 3.721 38.000 0
14.114 -1.843 2.849 2.000 0
16.684 -2.224 3.646 39.000 0
18.670 -2.393 2.568 12.000 0
14.463 -1.889 2.221 3.000 0
14.372 -1.913 2.439 9.000 0
14.866 -2.017 2.767 0.000 0
18.732 -2.591 3.797 1.000 0
0.000 0.000 0.000 50.000 0
18.280 -2.483 2.528 15.000 0
18.885 -2.611 2.915 62.000 0
20.245 -2.850 3.453 44.000 0
19.209 -2.755 3.592 60.000 0
16.430 -2.401 3.345 1.000 0
16.307 -2.428 3.594 33.000 0
21.208 -3.040 2.949 3.000 0
19.214 -2.802 2.980 55.000 0
18.137 -2.692 3.109 48.000 0
20.219 -3.054 3.798 20.000 0
16.397 -2.521 3.353 3.000 0
0.000 0.000 0.000 50.000 0
70.477 -10.631 9.857 30.000 0
18.565 -2.846 2.895 0.000 0
18.568 -2.895 3.197 99.000 0
18.567 -2.945 3.503 13.000 0
16.210 -2.616 3.329 3.000 0
18.233 -2.996 4.052 19.000 0
0.000 0.000 0.000 50.000 0
70.643 -11.361 11.072 43.000 0
61.229 -10.011 10.598 22.000 0
60.379 -10.037 11.446 30.000 0
18.945 -3.203 3.908 27.000 0
0.000 0.000 0.000 0.000 0
18.393 -3.048 2.601 78.000 0
18.815 -3.167 2.965 32.000 0
18.796 -3.215 3.269 83.000 0
18.793 -3.267 3.580 9.000 0
19.018 -3.361 3.942 41.000 0
16.364 -2.941 3.669 38.000 0
70.164 -12.150 9.980 17.000 0
52.235 -9.185 8.276 220.000 0
0.000 0.000 0.000 50.000 0
53.453 -9.697 10.233 10.000 0
18.416 -3.394 3.834 19.000 0
16.429 -3.077 3.700 37.000 0
70.595 -12.752 10.098 32.000 0
52.356 -9.596 8.340 191.000 0
55.773 -10.376 9.801 24.000 0
18.604 -3.514 3.578 7.000 0
19.032 -3.652 3.981 48.000 0
17.077 -3.329 3.863 15.000 0
66.038 -12.415 9.502 44.000 0
61.367 -11.699 9.828 13.000 0
55.528 -10.743 9.806 29.000 0
18.688 -3.669 3.612 10.000 0
18.938 -3.775 3.980 47.000 0
17.140 -3.470 3.895 14.000 0
0.000 0.000 0.000 50.000 0
61.196 -12.119 9.854 16.000 0
55.307 -11.108 9.816 27.000 0
18.787 -3.829 3.649 20.000 0
16.641 -3.442 3.513 1.000 0
17.087 -3.589 3.901 40.000 0
0.000 0.000 0.000 0.000 0
45.261 -9.294 7.326 19.000 0
19.807 -4.125 3.534 43.000 0
18.836 -3.978 3.676 33.000 0
16.756 -3.591 3.554 34.000 0
17.112 -3.723 3.924 15.000 0
14.240 -2.988 2.084 10.000 0
19.842 -4.219 3.229 46.000 0
0.000 0.000 0.000 50.000 0
16.811 -3.674 3.296 42.000 0
16.881 -3.741 3.597 36.000 0
17.507 -3.937 4.032 16.000 0
14.378 -3.120 2.116 7.000 0
59.620 -13.104 9.754 13.000 0
19.031 -4.238 3.429 17.000 0
16.889 -3.813 3.328 43.000 0
16.906 -3.871 3.619 28.000 0
17.483 -4.060 4.045 3.000 0
77.186 -17.297 11.425 45.000 0
0.000 0.000 0.000 50.000 0
18.956 -4.356 3.432 13.000 0
16.807 -3.914 3.326 15.000 0
17.255 -4.074 3.710 41.000 0
17.722 -4.243 4.118 1.000 0
77.490 -17.904 11.533 47.000 0
59.374 -13.887 9.812 40.000 0
59.432 -14.080 10.814 31.000 0
17.062 -4.094 3.393 45.000 0
17.199 -4.183 3.714 16.000 0
17.948 -4.426 4.188 17.000 0
77.397 -18.422 11.581 30.000 0
59.456 -14.321 9.875 37.000 0
17.287 -4.215 3.160 24.000 0
0.000 0.000 0.000 50.000 0
17.724 -4.436 3.845 16.000 0
17.697 -4.490 4.146 18.000 0
21.745 -5.326 3.270 6.000 0
18.569 -4.601 3.099 14.000 0
0.000 0.000 0.000 0.000 0
17.513 -4.447 3.514 4.000 0
20.278 -5.217 4.418 43.000 0
20.116 -5.245 4.733 22.000 0
21.838 -5.497 3.301 25.000 0
21.638 -5.510 3.629 35.000 0
18.335 -4.724 3.382 2.000 0
20.509 -5.349 4.133 74.000 0
16.550 -4.371 3.620 10.000 0
17.457 -4.672 4.124 38.000 0
0.000 0.000 0.000 50.000 0
21.824 -5.704 3.678 24.000 0
20.560 -5.437 3.810 61.000 0
17.479 -4.678 3.537 18.000 0
17.000 -4.607 3.734 20.000 0
17.612 -4.835 4.177 60.000 0
17.767 -4.712 2.712 32.000 0
16.997 -4.556 2.877 19.000 0
17.638 -4.782 3.283 48.000 0
17.476 -4.795 3.551 20.000 0
16.652 -4.624 3.672 15.000 0
17.485 -4.918 4.163 50.000 0
17.752 -4.823 2.722 39.000 0
17.102 -4.697 2.908 17.000 0
20.086 -5.579 3.753 79.000 0
0.000 0.000 0.000 50.000 0
16.561 -4.709 3.665 7.000 0
17.079 -4.917 4.081 3.000 0
17.899 -4.979 2.757 4.000 0
17.580 -4.942 3.001 16.000 0
21.011 -5.971 3.942 5.000 0
16.516 -4.747 3.382 9.000 0
16.686 -4.854 3.707 9.000 0
16.903 -4.978 4.054 10.000 0
0.000 0.000 0.000 0.000 0
17.139 -4.928 2.938 17.000 0
16.549 -4.810 3.117 4.000 0
16.480 -4.843 3.387 11.000 0
17.213 -5.119 3.838 16.000 0
16.164 -4.865 3.889 4.000 0
21.996 -6.399 3.416 6.000 0
16.509 -4.851 2.840 16.000 0
16.553 -4.916 3.129 8.000 0
16.595 -4.983 3.422 15.000 0
17.114 -5.198 3.828 32.000 0
0.000 0.000 0.000 50.000 0
17.664 -5.249 2.754 1.000 0
16.149 -4.847 2.789 15.000 0
16.831 -5.105 3.193 15.000 0
16.740 -5.132 3.463 18.000 0
17.006 -5.272 3.816 16.000 0
19.197 -6.022 4.649 37.000 0
17.180 -5.211 2.689 10.000 0
15.985 -4.896 2.770 18.000 0
16.618 -5.142 3.162 11.000 0
16.942 -5.297 3.516 20.000 0
8.492 -2.685 1.911 0.000 0
8.448 -2.702 2.051 3.000 0
0.000 0.000 0.000 50.000 0
8.538 -2.666 1.484 15.000 0
8.473 -2.672 1.617 29.000 0
8.426 -2.685 1.753 33.000 0
8.382 -2.701 1.892 33.000 0
8.351 -2.721 2.033 33.000 0
8.473 -2.671 1.334 32.000 0
8.428 -2.682 1.469 34.000 0
8.375 -2.691 1.603 35.000 0
8.361 -2.714 1.745 10.000 0
8.309 -2.726 1.880 2.000 0
0.000 0.000 0.000 50.000 0
8.404 -2.697 1.327 0.000 0
8.348 -2.704 1.459 0.000 0
8.308 -2.717 1.594 0.000 0
8.251 -2.725 1.726 0.000 0
8.277 -2.762 1.877 31.000 0
8.198 -2.766 2.006 33.000 0
8.327 -2.719 1.319 0.000 0
8.306 -2.736 1.455 0.000 0
8.320 -2.767 1.600 1.000 0
8.165 -2.742 1.712 0.000 0
8.180 -2.776 1.859 0.000 0
8.127 -2.787 1.992 33.000 0
8.423 -2.797 1.337 14.000 0
8.417 -2.819 1.478 12.000 0
8.312 -2.810 1.602 1.000 0
8.110 -2.768 1.703 0.000 0
8.108 -2.795 1.846 0.000 0
0.000 0.000 0.000 50.000 0
8.495 -2.866 1.351 4.000 0
8.503 -2.894 1.496 4.000 0
8.312 -2.854 1.604 1.000 0
8.076 -2.799 1.699 0.000 0
8.058 -2.821 1.838 0.000 0
8.002 -2.831 1.968 32.000 0
8.493 -2.910 1.353 5.000 0
8.442 -2.916 1.487 4.000 0
8.260 -2.879 1.597 1.000 0
8.298 -2.919 1.749 4.000 0
8.023 -2.850 1.832 1.000 0
7.956 -2.855 1.959 31.000 0
8.431 -2.931 1.345 4.000 0
8.392 -2.941 1.480 4.000 0
8.304 -2.936 1.607 1.000 0
8.048 -2.870 1.698 3.000 0
8.017 -2.887 1.833 7.000 0
7.895 -2.872 1.946 29.000 0
8.378 -2.954 1.337 4.000 0
8.335 -2.962 1.472 3.000 0
8.255 -2.958 1.599 1.000 0
0.000 0.000 0.000 50.000 0
7.962 -2.905 1.822 6.000 0
7.847 -2.892 1.936 25.000 0
8.321 -2.972 1.329 3.000 0
8.264 -2.975 1.460 3.000 0
8.551 -3.104 1.657 2.000 0
7.950 -2.911 1.680 2.000 0
7.912 -2.923 1.811 7.000 0
7.801 -2.910 1.926 22.000 0
8.260 -2.988 1.319 2.000 0
8.218 -2.995 1.452 2.000 0
7.887 -2.898 1.529 0.000 0
7.904 -2.928 1.670 2.000 0
7.871 -2.943 1.803 7.000 0
7.758 -2.927 1.916 17.000 0
8.200 -3.002 1.310 2.000 0
8.166 -3.011 1.443 2.000 0
7.830 -2.910 1.518 0.000 0
7.854 -2.943 1.660 3.000 0
7.829 -2.960 1.793 9.000 0
7.712 -2.942 1.905 12.000 0
8.164 -3.022 1.304 3.000 0
0.000 0.000 0.000 50.000 0
7.795 -2.928 1.511 0.000 0
7.827 -2.964 1.653 3.000 0
7.787 -2.974 1.782 9.000 0
7.667 -2.955 1.893 9.000 0
8.119 -3.038 1.295 3.000 0
8.080 -3.044 1.426 2.000 0
7.720 -2.930 1.495 0.000 0
7.785 -2.978 1.643 3.000 0
7.756 -2.991 1.774 9.000 0
7.637 -2.971 1.884 4.000 0
8.069 -3.049 1.286 2.000 0
8.039 -3.058 1.417 2.000 0
7.677 -2.941 1.485 0.000 0
7.745 -2.990 1.633 2.000 0
7.714 -3.002 1.763 10.000 0
0.000 0.000 0.000 50.000 0
8.057 -3.073 1.282 6.000 0
8.034 -3.084 1.414 3.000 0
7.679 -2.968 1.484 0.000 0
7.712 -3.003 1.624 2.000 0
7.689 -3.018 1.755 8.000 0
7.564 -2.993 1.862 1.000 0
8.034 -3.091 1.276 3.000 0
8.013 -3.102 1.408 3.000 0
7.640 -2.978 1.474 0.000 0
7.656 -3.005 1.610 2.000 0
7.657 -3.029 1.746 8.000 0
7.523 -3.000 1.850 1.000 0
8.028 -3.113 1.272 3.000 0
8.050 -3.141 1.411 2.000 0
7.616 -2.990 1.466 0.000 0
7.634 -3.019 1.602 1.000 0
7.635 -3.042 1.737 8.000 0
7.499 -3.011 1.841 0.000 0
0.000 0.000 0.000 50.000 0
8.034 -3.157 1.405 1.000 0
7.586 -3.000 1.457 0.000 0
7.618 -3.033 1.595 1.000 0
7.606 -3.050 1.727 8.000 0
7.487 -3.025 1.834 0.000 0
8.068 -3.173 1.270 3.000 0
7.972 -3.153 1.390 1.000 0
7.601 -3.025 1.455 0.000 0
7.544 -3.021 1.576 0.000 0
7.582 -3.058 1.717 8.000 0
7.486 -3.042 1.829 0.000 0
8.061 -3.190 1.265 4.000 0
7.952 -3.164 1.382 1.000 0
7.615 -3.047 1.454 0.000 0
0.000 0.000 0.000 50.000 0
7.563 -3.066 1.709 8.000 0
7.483 -3.056 1.824 1.000 0
8.076 -3.213 1.262 4.000 0
8.107 -3.242 1.404 4.000 0
7.564 -3.041 1.439 0.000 0
7.497 -3.033 1.557 0.000 0
7.546 -3.073 1.699 9.000 0
0.000 0.000 0.000 50.000 0
8.059 -3.222 1.254 4.000 0
8.072 -3.243 1.392 3.000 0
7.679 -3.101 1.456 0.000 0
7.477 -3.037 1.547 0.000 0
7.538 -3.081 1.692 10.000 0
7.465 -3.072 1.809 2.000 0
8.064 -3.237 1.249 3.000 0
8.016 -3.233 1.377 2.000 0
7.703 -3.123 1.455 0.000 0
7.432 -3.029 1.532 0.000 0
7.522 -3.085 1.683 9.000 0
7.471 -3.084 1.804 2.000 0
8.060 -3.247 1.242 3.000 0
8.025 -3.247 1.372 3.000 0
7.882 -3.205 1.482 0.000 0
7.465 -3.051 1.533 0.000 0
7.513 -3.089 1.674 8.000 0
7.462 -3.087 1.795 3.000 0
8.019 -3.239 1.229 2.000 0
8.039 -3.261 1.367 2.000 0
7.898 -3.219 1.478 0.000 0
7.438 -3.047 1.520 0.000 0
0.000 0.000 0.000 50.000 0
7.460 -3.092 1.788 3.000 0
8.016 -3.246 1.222 3.000 0
8.066 -3.279 1.365 3.000 0
7.686 -3.138 1.431 0.000 0
7.416 -3.042 1.509 0.000 0
7.503 -3.094 1.657 8.000 0
7.464 -3.096 1.781 7.000 0
8.059 -3.268 1.221 3.000 0
7.929 -3.227 1.334 1.000 0
7.484 -3.059 1.386 0.000 0
7.437 -3.053 1.506 0.000 0
7.506 -3.097 1.651 8.000 0
0.000 0.000 0.000 50.000 0
8.117 -3.295 1.222 4.000 0
7.737 -3.151 1.294 0.000 0
7.480 -3.058 1.378 0.000 0
