# .PCD v.7 - Point Cloud Data file format
VERSION .7
FIELDS x y z intensity class
SIZE 4 4 4 4
TYPE F F F F
COUNT 1 1 1 1WIDTH 23986
HEIGHT 1
VIEWPOINT 0 0 0 1 0 0 0
POINTS 1683
DATA ascii
18.497 3.872 -1.699 4.000 0
10.636 2.266 -1.836 4.000 0
11.611 2.483 -1.815 4.000 0
12.835 2.756 -1.799 3.000 0
14.280 3.079 -1.773 5.000 0
16.110 3.490 -1.743 4.000 0
18.378 4.003 -1.698 3.000 0
10.578 2.346 -1.833 3.000 0
11.573 2.576 -1.817 5.000 0
12.790 2.857 -1.801 4.000 0
14.209 3.187 -1.773 5.000 0
16.031 3.611 -1.744 3.000 0
18.306 4.144 -1.702 3.000 0
10.538 2.430 -1.834 3.000 0
11.510 2.662 -1.815 4.000 0
12.724 2.952 -1.800 4.000 0
14.171 3.301 -1.777 6.000 0
15.928 3.725 -1.743 4.000 0
18.218 4.279 -1.704 3.000 0
10.485 2.510 -1.833 3.000 0
11.451 2.749 -1.815 4.000 0
12.648 3.045 -1.799 5.000 0
14.036 3.391 -1.770 5.000 0
15.836 3.840 -1.743 3.000 0
18.159 4.422 -1.710 3.000 0
10.438 2.592 -1.834 4.000 0
11.390 2.834 -1.814 4.000 0
12.570 3.137 -1.798 5.000 0
13.991 3.502 -1.774 4.000 0
15.765 3.959 -1.746 3.000 0
18.086 4.559 -1.715 3.000 0
10.395 2.673 -1.836 3.000 0
11.327 2.919 -1.814 5.000 0
12.500 3.229 -1.798 5.000 0
13.917 3.606 -1.776 5.000 0
15.647 4.068 -1.745 3.000 0
17.910 4.672 -1.711 4.000 0
10.338 2.752 -1.835 3.000 0
11.268 3.005 -1.814 3.000 0
12.428 3.321 -1.798 5.000 0
13.790 3.694 -1.771 4.000 0
15.598 4.190 -1.751 3.000 0
18.018 4.857 -1.734 9.000 3
10.282 2.829 -1.835 3.000 0
11.213 3.091 -1.816 4.000 0
12.356 3.413 -1.798 4.000 0
13.709 3.794 -1.772 3.000 0
15.483 4.296 -1.751 3.000 0
17.923 4.988 -1.739 29.000 3
10.212 2.902 -1.833 4.000 0
11.133 3.168 -1.814 4.000 0
12.279 3.500 -1.798 4.000 0
13.614 3.887 -1.771 4.000 0
15.391 4.405 -1.753 3.000 0
17.470 5.015 -1.709 49.000 3
10.150 2.977 -1.832 5.000 0
11.073 3.251 -1.815 5.000 0
12.188 3.583 -1.796 5.000 0
13.560 3.993 -1.777 3.000 0
15.300 4.517 -1.756 4.000 0
17.116 5.065 -1.688 17.000 3
10.102 3.055 -1.834 5.000 0
11.017 3.333 -1.817 5.000 0
12.130 3.675 -1.799 6.000 0
13.458 4.084 -1.775 3.000 0
15.182 4.616 -1.755 4.000 0
17.074 5.204 -1.698 4.000 0
10.035 3.126 -1.834 5.000 0
10.927 3.405 -1.814 5.000 0
12.035 3.754 -1.798 5.000 0
13.399 4.185 -1.780 3.000 0
15.037 4.705 -1.752 4.000 0
17.077 5.356 -1.713 4.000 0
9.960 3.194 -1.831 5.000 0
10.863 3.485 -1.815 4.000 0
11.938 3.832 -1.796 4.000 0
13.284 4.270 -1.779 3.000 0
15.125 4.869 -1.777 14.000 3
16.972 5.475 -1.718 3.000 0
9.895 3.265 -1.831 5.000 0
10.803 3.565 -1.817 4.000 0
11.875 3.921 -1.799 4.000 0
13.249 4.379 -1.787 3.000 0
14.972 4.955 -1.773 35.000 3
16.773 5.561 -1.713 3.000 0
9.834 3.336 -1.832 5.000 0
10.707 3.632 -1.814 5.000 0
11.785 3.998 -1.799 3.000 0
13.145 4.463 -1.787 4.000 0
14.643 4.978 -1.749 43.000 3
16.652 5.669 -1.716 3.000 0
9.780 3.407 -1.834 4.000 0
10.635 3.705 -1.814 4.000 0
11.741 4.090 -1.805 3.000 0
13.010 4.536 -1.783 4.000 0
14.365 5.014 -1.731 22.000 3
16.603 5.803 -1.728 3.000 0
9.716 3.477 -1.835 5.000 0
10.580 3.784 -1.818 5.000 0
11.642 4.164 -1.803 3.000 0
12.907 4.619 -1.783 4.000 0
14.246 5.102 -1.731 7.000 3
16.392 5.878 -1.722 3.000 0
9.648 3.543 -1.835 4.000 0
10.488 3.848 -1.815 4.000 0
11.575 4.247 -1.807 3.000 0
12.809 4.701 -1.784 5.000 0
14.292 5.248 -1.752 3.000 0
16.267 5.981 -1.725 3.000 0
9.573 3.605 -1.833 4.000 0
10.439 3.928 -1.820 3.000 0
11.513 4.330 -1.811 3.000 0
12.783 4.808 -1.795 9.000 3
14.173 5.333 -1.753 3.000 0
16.163 6.089 -1.730 3.000 0
9.513 3.671 -1.835 4.000 0
10.361 3.995 -1.820 3.000 0
11.433 4.406 -1.812 3.000 0
12.726 4.903 -1.802 29.000 3
14.096 5.434 -1.759 3.000 0
16.019 6.180 -1.733 3.000 0
9.452 3.737 -1.836 4.000 0
10.261 4.052 -1.816 3.000 0
11.340 4.476 -1.812 4.000 0
12.516 4.938 -1.787 49.000 3
13.985 5.519 -1.761 3.000 0
15.850 6.258 -1.731 3.000 0
9.386 3.799 -1.837 4.000 0
10.218 4.131 -1.822 3.000 0
11.251 4.544 -1.812 4.000 0
12.289 4.962 -1.769 32.000 3
13.909 5.616 -1.767 3.000 0
13.669 5.523 -1.507 5.000 29
9.328 3.864 -1.839 3.000 0
10.142 4.195 -1.822 3.000 0
11.140 4.603 -1.809 4.000 0
12.149 5.018 -1.764 10.000 3
13.756 5.681 -1.764 3.000 29
13.313 5.501 -1.482 5.000 29
9.255 3.921 -1.838 3.000 0
10.075 4.262 -1.824 3.000 0
11.040 4.666 -1.807 4.000 0
12.155 5.133 -1.780 5.000 0
13.629 5.755 -1.763 2.000 29
13.004 5.493 -1.463 4.000 29
9.210 3.989 -1.842 2.000 0
10.012 4.329 -1.826 3.000 0
10.962 4.734 -1.808 5.000 3
12.097 5.220 -1.786 4.000 0
13.495 5.822 -1.762 2.000 29
12.773 5.512 -1.451 7.000 29
9.147 4.050 -1.844 2.000 0
9.931 4.388 -1.826 3.000 0
11.004 4.856 -1.830 13.000 3
11.997 5.289 -1.786 3.000 0
13.321 5.870 -1.755 2.000 29
12.448 5.486 -1.427 4.000 29
9.089 4.110 -1.845 2.000 0
9.884 4.460 -1.831 3.000 0
10.846 4.887 -1.818 33.000 3
11.909 5.360 -1.788 2.000 29
12.263 5.517 -1.630 3.000 29
12.139 5.461 -1.405 7.000 29
9.023 4.166 -1.846 3.000 0
9.793 4.512 -1.828 4.000 0
10.698 4.921 -1.808 53.000 3
11.830 5.435 -1.791 3.000 29
11.973 5.498 -1.605 4.000 29
11.986 5.502 -1.401 7.000 29
8.958 4.221 -1.845 3.000 0
9.711 4.566 -1.827 4.000 0
10.526 4.941 -1.792 31.000 3
11.740 5.503 -1.793 3.000 29
11.659 5.461 -1.577 4.000 29
11.644 5.453 -1.374 7.000 29
8.882 4.270 -1.843 3.000 0
9.639 4.623 -1.827 5.000 0
10.418 4.988 -1.788 9.000 3
11.612 5.552 -1.788 3.000 29
11.451 5.470 -1.563 10.000 29
11.393 5.441 -1.357 7.000 29
8.834 4.332 -1.847 3.000 0
9.565 4.679 -1.826 4.000 3
10.400 5.078 -1.799 4.000 0
11.575 5.643 -1.797 4.000 29
11.191 5.451 -1.541 10.000 29
11.191 5.448 -1.346 9.000 29
8.791 4.396 -1.851 3.000 0
9.533 4.753 -1.834 6.000 3
10.359 5.155 -1.806 4.000 0
11.504 5.715 -1.800 3.000 29
10.960 5.439 -1.522 9.000 29
10.944 5.428 -1.328 8.000 29
8.721 4.443 -1.850 3.000 0
9.496 4.825 -1.840 21.000 3
10.295 5.219 -1.808 4.000 0
11.412 5.776 -1.800 2.000 29
10.747 5.433 -1.505 9.000 29
10.735 5.424 -1.315 8.000 29
8.662 4.496 -1.850 4.000 0
9.378 4.853 -1.830 46.000 3
10.240 5.287 -1.812 3.000 29
11.320 5.834 -1.800 2.000 29
10.527 5.419 -1.486 9.000 29
10.525 5.414 -1.301 7.000 29
8.600 4.544 -1.850 3.000 0
9.261 4.879 -1.821 50.000 3
10.184 5.352 -1.816 3.000 29
11.213 5.882 -1.797 2.000 29
10.321 5.407 -1.469 8.000 29
10.324 5.404 -1.287 7.000 29
8.520 4.582 -1.845 4.000 0
9.169 4.916 -1.815 29.000 3
10.126 5.416 -1.819 2.000 29
11.031 5.888 -1.781 2.000 29
10.134 5.401 -1.454 7.000 29
10.147 5.403 -1.275 7.000 29
8.464 4.631 -1.845 4.000 0
9.069 4.946 -1.808 13.000 3
10.067 5.476 -1.821 2.000 29
10.122 5.495 -1.646 3.000 29
9.952 5.395 -1.439 7.000 29
9.951 5.389 -1.260 7.000 29
8.409 4.679 -1.845 4.000 3
9.079 5.036 -1.822 5.000 3
9.990 5.526 -1.819 2.000 29
9.829 5.425 -1.610 7.000 29
9.784 5.392 -1.425 5.000 29
9.791 5.390 -1.250 7.000 29
8.391 4.747 -1.854 6.000 3
9.048 5.101 -1.828 4.000 0
9.917 5.576 -1.818 2.000 29
9.624 5.398 -1.587 8.000 29
9.625 5.391 -1.412 5.000 29
9.640 5.393 -1.241 7.000 29
8.364 4.808 -1.859 21.000 3
8.980 5.145 -1.825 4.000 29
9.876 5.641 -1.823 2.000 29
9.453 5.388 -1.569 16.000 29
9.488 5.398 -1.402 6.000 29
9.489 5.392 -1.230 8.000 29
8.274 4.832 -1.850 38.000 3
8.955 5.211 -1.831 2.000 29
9.803 5.688 -1.821 2.000 29
9.292 5.378 -1.553 14.000 29
9.350 5.402 -1.391 1.000 29
9.315 5.375 -1.216 1.000 29
8.214 4.871 -1.848 48.000 3
8.916 5.268 -1.835 2.000 29
9.742 5.737 -1.820 2.000 29
9.144 5.372 -1.538 7.000 29
9.181 5.383 -1.374 7.000 29
9.184 5.378 -1.207 7.000 29
8.118 4.885 -1.836 36.000 3
8.863 5.312 -1.834 2.000 29
9.719 5.807 -1.826 2.000 29
9.008 5.369 -1.524 7.000 29
9.055 5.387 -1.364 4.000 29
9.043 5.373 -1.196 7.000 29
8.060 4.920 -1.833 18.000 3
8.794 5.349 -1.830 2.000 29
9.645 5.847 -1.823 2.000 29
8.867 5.362 -1.509 6.000 29
8.868 5.351 -1.344 1.000 29
8.908 5.368 -1.186 9.000 29
8.023 4.968 -1.834 5.000 3
8.764 5.406 -1.833 2.000 29
9.600 5.901 -1.824 2.000 29
8.717 5.345 -1.491 1.000 29
8.728 5.340 -1.330 1.000 29
8.739 5.339 -1.170 1.000 29
8.037 5.045 -1.846 4.000 0
8.723 5.454 -1.834 2.000 29
9.437 5.880 -1.802 2.000 29
8.607 5.348 -1.480 13.000 29
8.624 5.348 -1.321 12.000 29
8.625 5.340 -1.161 13.000 29
8.005 5.092 -1.848 3.000 0
8.698 5.509 -1.837 2.000 29
8.612 5.437 -1.652 5.000 29
8.497 5.349 -1.468 12.000 29
8.507 5.343 -1.310 13.000 29
8.511 5.338 -1.152 15.000 29
7.979 5.139 -1.850 3.000 29
8.644 5.545 -1.834 2.000 29
8.401 5.370 -1.619 7.000 29
8.385 5.345 -1.455 14.000 29
8.389 5.336 -1.297 14.000 29
8.392 5.330 -1.141 16.000 29
7.940 5.179 -1.849 3.000 29
8.622 5.599 -1.837 2.000 29
8.325 5.387 -1.611 5.000 29
8.292 5.350 -1.445 7.000 29
8.281 5.331 -1.286 4.000 29
8.305 5.337 -1.134 12.000 29
7.923 5.229 -1.852 2.000 29
8.597 5.648 -1.838 2.000 29
8.317 5.445 -1.616 6.000 29
8.297 5.416 -1.452 6.000 29
8.301 5.406 -1.294 6.000 29
8.262 5.372 -1.132 5.000 29
7.897 5.271 -1.852 2.000 29
8.557 5.687 -1.836 2.000 29
8.087 5.356 -1.577 4.000 29
8.116 5.359 -1.425 4.000 29
8.137 5.359 -1.273 3.000 29
8.297 5.456 -1.141 4.000 29
7.887 5.322 -1.856 2.000 29
7.964 5.352 -1.715 3.000 29
7.992 5.350 -1.563 3.000 29
8.027 5.357 -1.414 14.000 29
8.045 5.357 -1.262 3.000 29
8.069 5.364 -1.113 3.000 29
7.849 5.354 -1.853 2.000 29
7.867 5.342 -1.699 3.000 29
7.959 5.384 -1.561 11.000 29
8.024 5.411 -1.417 23.000 29
7.996 5.380 -1.258 6.000 29
7.976 5.357 -1.103 4.000 29
7.774 5.355 -1.840 2.000 29
7.807 5.353 -1.690 4.000 29
7.941 5.425 -1.561 7.000 29
7.995 5.445 -1.415 24.000 29
7.983 5.423 -1.258 6.000 29
7.904 5.360 -1.096 4.000 29
7.709 5.360 -1.828 2.000 29
7.739 5.357 -1.679 4.000 29
7.921 5.462 -1.560 5.000 29
7.988 5.491 -1.417 5.000 29
7.956 5.456 -1.257 5.000 29
7.827 5.358 -1.087 4.000 29
7.622 5.347 -1.811 2.000 29
7.679 5.363 -1.669 4.000 29
7.922 5.511 -1.564 6.000 29
7.999 5.548 -1.421 7.000 29
7.964 5.510 -1.260 4.000 29
7.758 5.358 -1.078 3.000 29
7.562 5.351 -1.800 2.000 29
7.606 5.357 -1.655 3.000 29
7.919 5.556 -1.565 5.000 29
7.835 5.480 -1.394 5.000 29
7.963 5.556 -1.261 6.000 29
7.680 5.349 -1.069 3.000 29
7.511 5.357 -1.790 2.000 29
7.528 5.345 -1.640 3.000 29
7.881 5.574 -1.559 5.000 29
7.762 5.472 -1.382 5.000 29
7.969 5.604 -1.262 5.000 29
7.621 5.350 -1.061 4.000 29
7.472 5.369 -1.782 1.000 29
7.459 5.335 -1.627 3.000 29
7.816 5.568 -1.547 4.000 29
7.704 5.471 -1.372 5.000 29
7.771 5.505 -1.232 6.000 29
7.555 5.343 -1.051 3.000 29
7.475 5.408 -1.784 1.000 29
7.399 5.329 -1.614 3.000 29
7.459 5.351 -1.477 4.000 29
7.620 5.449 -1.357 4.000 29
7.487 5.341 -1.186 3.000 29
7.515 5.352 -1.045 4.000 29
7.487 5.452 -1.787 0.000 29
7.367 5.339 -1.607 3.000 29
7.398 5.341 -1.464 3.000 29
7.426 5.344 -1.322 3.000 29
7.431 5.335 -1.177 3.000 29
7.474 5.356 -1.038 4.000 29
7.475 5.474 -1.784 0.000 29
7.334 5.346 -1.599 2.000 29
7.348 5.335 -1.453 3.000 29
7.373 5.336 -1.311 3.000 29
7.393 5.338 -1.169 3.000 29
7.438 5.361 -1.032 3.000 29
7.511 5.530 -1.791 1.000 29
7.300 5.349 -1.590 1.000 29
7.317 5.341 -1.446 2.000 29
7.347 5.346 -1.305 3.000 29
7.370 5.350 -1.163 4.000 29
7.296 5.287 -1.009 3.000 29
7.547 5.582 -1.798 1.000 29
7.206 5.305 -1.568 3.000 29
7.288 5.345 -1.438 3.000 29
7.328 5.357 -1.299 4.000 29
7.299 5.323 -1.150 3.000 29
7.281 5.301 -1.005 15.000 29
7.565 5.618 -1.800 1.000 29
7.175 5.304 -1.559 6.000 29
7.186 5.291 -1.416 3.000 29
7.207 5.291 -1.275 3.000 29
7.221 5.288 -1.135 3.000 29
7.256 5.305 -0.998 16.000 29
7.558 5.633 -1.796 2.000 29
7.164 5.315 -1.554 17.000 29
7.177 5.304 -1.411 15.000 29
7.188 5.295 -1.269 11.000 29
7.210 5.299 -1.130 16.000 29
7.230 5.305 -0.991 16.000 29
7.362 5.503 -1.746 4.000 29
7.141 5.313 -1.546 15.000 29
7.159 5.306 -1.404 15.000 29
7.169 5.297 -1.262 15.000 29
7.193 5.302 -1.123 15.000 29
7.205 5.302 -0.985 17.000 29
7.249 5.431 -1.715 4.000 29
7.111 5.303 -1.535 13.000 29
7.135 5.301 -1.395 14.000 29
7.153 5.298 -1.255 16.000 29
7.174 5.301 -1.116 15.000 29
7.184 5.300 -0.977 17.000 29
7.169 5.381 -1.692 3.000 29
7.102 5.306 -1.529 14.000 29
7.124 5.302 -1.388 12.000 29
7.141 5.299 -1.248 15.000 29
7.153 5.295 -1.109 15.000 29
7.177 5.304 -0.972 17.000 29
7.174 5.390 -1.688 4.000 29
7.094 5.306 -1.522 12.000 29
7.110 5.298 -1.381 11.000 29
7.128 5.295 -1.241 15.000 29
7.151 5.300 -1.103 15.000 29
7.165 5.302 -0.965 17.000 29
7.165 5.386 -1.680 4.000 29
7.097 5.311 -1.517 11.000 29
7.106 5.298 -1.375 12.000 29
7.129 5.299 -1.236 15.000 29
7.144 5.298 -1.097 15.000 29
7.162 5.303 -0.960 17.000 29
7.168 5.388 -1.675 4.000 29
7.091 5.306 -1.511 10.000 29
7.105 5.297 -1.369 12.000 29
7.131 5.301 -1.231 15.000 29
7.150 5.304 -1.093 15.000 29
7.158 5.301 -0.954 17.000 29
7.169 5.385 -1.669 5.000 29
7.097 5.308 -1.505 11.000 29
7.108 5.296 -1.364 10.000 29
7.134 5.300 -1.226 15.000 29
7.149 5.300 -1.087 15.000 29
7.161 5.301 -0.948 17.000 29
7.172 5.381 -1.663 4.000 29
7.103 5.306 -1.500 13.000 29
7.118 5.297 -1.359 13.000 29
7.141 5.299 -1.220 15.000 29
7.157 5.300 -1.082 15.000 29
7.172 5.303 -0.944 17.000 29
7.307 5.472 -1.686 2.000 29
7.114 5.304 -1.496 10.000 29
7.135 5.301 -1.355 15.000 29
7.154 5.299 -1.216 15.000 29
7.170 5.300 -1.077 15.000 29
7.185 5.304 -0.939 17.000 29
7.379 5.512 -1.696 1.000 29
7.136 5.308 -1.493 14.000 29
7.150 5.299 -1.351 15.000 29
7.174 5.302 -1.212 16.000 29
7.190 5.303 -1.073 16.000 29
7.201 5.304 -0.935 17.000 29
7.360 5.482 -1.683 1.000 29
7.157 5.308 -1.490 14.000 29
7.177 5.304 -1.349 15.000 29
7.202 5.307 -1.210 16.000 29
7.214 5.305 -1.070 16.000 29
7.219 5.302 -0.930 17.000 29
7.321 5.432 -1.666 1.000 29
7.176 5.303 -1.486 6.000 29
7.182 5.288 -1.342 3.000 29
7.220 5.302 -1.206 4.000 29
7.235 5.303 -1.066 16.000 29
7.250 5.307 -0.927 17.000 29
7.344 5.427 -1.662 1.000 29
7.208 5.304 -1.484 3.000 29
7.281 5.340 -1.353 3.000 29
7.312 5.348 -1.214 3.000 29
7.257 5.297 -1.062 6.000 29
7.282 5.309 -0.925 18.000 29
7.350 5.406 -1.656 1.000 29
7.302 5.348 -1.496 3.000 29
7.309 5.335 -1.351 3.000 29
7.347 5.349 -1.212 4.000 29
7.311 5.312 -1.062 3.000 29
7.317 5.310 -0.922 18.000 29
7.334 5.365 -1.643 1.000 29
7.321 5.334 -1.491 3.000 29
7.353 5.340 -1.351 3.000 29
7.376 5.342 -1.209 4.000 29
7.427 5.369 -1.072 4.000 29
7.357 5.312 -0.919 17.000 29
7.364 5.355 -1.640 3.000 29
7.356 5.328 -1.490 2.000 29
7.398 5.340 -1.350 3.000 29
7.427 5.348 -1.209 3.000 29
7.447 5.352 -1.067 4.000 29
7.395 5.309 -0.917 5.000 29
7.404 5.350 -1.640 3.000 29
7.421 5.341 -1.494 3.000 29
7.517 5.393 -1.364 5.000 29
7.471 5.346 -1.208 4.000 29
7.493 5.352 -1.066 3.000 29
7.458 5.321 -0.918 1.000 29
7.444 5.342 -1.640 3.000 29
7.737 5.530 -1.549 5.000 29
7.676 5.469 -1.384 4.000 29
7.739 5.500 -1.244 6.000 29
7.531 5.342 -1.064 4.000 29
7.602 5.387 -0.928 2.000 29
7.506 5.346 -1.644 3.000 29
7.853 5.571 -1.563 4.000 29
7.731 5.468 -1.385 4.000 29
7.943 5.604 -1.268 5.000 29
7.593 5.347 -1.065 3.000 29
7.649 5.381 -0.926 2.000 29
7.601 5.371 -1.655 4.000 29
7.936 5.586 -1.570 4.000 29
7.817 5.485 -1.392 6.000 29
7.956 5.569 -1.261 7.000 29
7.664 5.355 -1.067 3.000 29
7.741 5.403 -0.930 3.000 29
7.681 5.381 -1.663 4.000 29
7.919 5.526 -1.557 6.000 29
7.987 5.557 -1.414 7.000 29
7.947 5.515 -1.252 4.000 29
7.749 5.368 -1.071 4.000 29
7.905 5.471 -0.943 5.000 29
7.757 5.385 -1.670 4.000 29
7.918 5.476 -1.548 4.000 29
7.985 5.506 -1.404 4.000 29
7.936 5.458 -1.242 6.000 29
7.810 5.363 -1.072 4.000 29
8.011 5.496 -0.948 6.000 29
7.812 5.372 -1.672 4.000 29
7.930 5.433 -1.541 11.000 29
7.982 5.452 -1.395 18.000 29
7.952 5.418 -1.236 7.000 29
7.877 5.358 -1.074 4.000 29
8.098 5.502 -0.951 6.000 29
7.874 5.360 -1.677 4.000 29
7.959 5.398 -1.538 13.000 29
8.006 5.414 -1.391 20.000 29
7.970 5.377 -1.231 7.000 29
7.950 5.354 -1.077 4.000 29
8.139 5.476 -0.949 6.000 29
7.962 5.363 -1.686 4.000 29
7.997 5.367 -1.536 6.000 29
8.022 5.368 -1.385 12.000 29
8.031 5.361 -1.233 4.000 29
8.122 5.413 -1.093 4.000 29
8.102 5.394 -0.938 12.000 29
8.261 5.503 -1.739 2.000 29
8.075 5.360 -1.543 3.000 29
8.097 5.359 -1.390 4.000 29
8.133 5.370 -1.241 4.000 29
8.285 5.462 -1.108 5.000 29
8.107 5.338 -0.932 3.000 29
8.791 5.789 -1.842 2.000 29
8.285 5.436 -1.574 5.000 29
8.277 5.415 -1.413 6.000 29
8.289 5.410 -1.257 7.000 29
8.221 5.357 -1.092 7.000 29
8.196 5.335 -0.936 18.000 29
8.823 5.740 -1.838 3.000 29
8.284 5.371 -1.565 7.000 29
8.281 5.353 -1.406 7.000 29
8.265 5.330 -1.247 1.000 29
8.281 5.332 -1.094 18.000 29
8.295 5.335 -0.941 20.000 29
8.860 5.693 -1.836 2.000 29
8.351 5.348 -1.570 18.000 29
8.365 5.341 -1.413 15.000 29
8.377 5.336 -1.257 17.000 29
8.388 5.335 -1.102 21.000 29
8.409 5.343 -0.949 22.000 29
8.904 5.649 -1.836 2.000 29
8.475 5.357 -1.585 18.000 29
8.470 5.339 -1.423 18.000 29
8.502 5.347 -1.269 17.000 29
8.502 5.338 -1.110 20.000 29
8.518 5.343 -0.955 22.000 29
8.940 5.596 -1.835 3.000 29
8.599 5.364 -1.600 9.000 29
8.610 5.355 -1.440 13.000 29
8.622 5.351 -1.280 15.000 29
8.635 5.350 -1.122 16.000 29
8.636 5.345 -0.963 17.000 29
8.988 5.550 -1.836 3.000 29
8.729 5.371 -1.617 1.000 29
8.732 5.358 -1.453 3.000 29
8.768 5.367 -1.296 8.000 29
8.787 5.371 -1.136 13.000 29
8.789 5.367 -0.976 8.000 29
9.019 5.492 -1.835 3.000 29
8.900 5.400 -1.642 1.000 29
8.884 5.375 -1.472 6.000 29
8.907 5.377 -1.310 5.000 29
8.910 5.370 -1.147 15.000 29
8.927 5.374 -0.986 7.000 29
9.042 5.426 -1.832 3.000 29
9.876 5.905 -1.814 3.000 29
9.013 5.374 -1.487 5.000 29
9.050 5.384 -1.325 7.000 29
9.065 5.384 -1.162 14.000 29
9.073 5.383 -0.998 8.000 29
9.081 5.368 -1.832 2.000 29
9.923 5.845 -1.815 2.000 29
9.161 5.382 -1.505 6.000 29
9.193 5.388 -1.341 12.000 29
9.214 5.392 -1.176 13.000 29
9.215 5.386 -1.010 7.000 29
9.099 5.297 -1.828 3.000 29
9.961 5.779 -1.815 2.000 29
9.311 5.387 -1.524 7.000 29
9.333 5.387 -1.357 1.000 29
9.337 5.380 -1.187 1.000 29
9.387 5.402 -1.025 5.000 29
9.134 5.235 -1.829 3.000 29
10.021 5.723 -1.820 2.000 29
9.463 5.389 -1.544 16.000 29
9.525 5.411 -1.380 6.000 29
9.519 5.399 -1.207 16.000 29
9.522 5.395 -1.036 11.000 29
9.165 5.168 -1.829 4.000 29
10.036 5.640 -1.816 2.000 29
9.625 5.393 -1.565 17.000 29
9.661 5.401 -1.395 4.000 29
9.673 5.398 -1.222 15.000 29
9.676 5.394 -1.050 9.000 29
9.184 5.095 -1.827 4.000 0
10.062 5.563 -1.815 3.000 29
9.789 5.395 -1.587 9.000 29
9.823 5.402 -1.414 8.000 29
9.830 5.395 -1.239 14.000 29
9.840 5.393 -1.065 8.000 29
9.153 4.991 -1.814 7.000 3
10.066 5.470 -1.811 3.000 29
10.065 5.453 -1.627 5.000 29
9.996 5.403 -1.436 10.000 29
10.006 5.398 -1.258 8.000 29
10.022 5.400 -1.082 14.000 29
9.166 4.912 -1.812 37.000 3
10.090 5.388 -1.810 3.000 29
11.089 5.904 -1.788 3.000 29
10.194 5.415 -1.460 9.000 29
10.206 5.411 -1.280 9.000 29
10.217 5.410 -1.101 12.000 29
9.279 4.886 -1.830 53.000 3
10.111 5.306 -1.809 4.000 29
11.217 5.867 -1.805 3.000 29
10.393 5.424 -1.486 11.000 29
10.402 5.417 -1.303 9.000 29
10.418 5.418 -1.122 9.000 29
9.371 4.845 -1.843 29.000 3
10.145 5.226 -1.811 4.000 0
11.234 5.770 -1.804 3.000 29
10.599 5.430 -1.512 17.000 29
10.625 5.433 -1.329 9.000 29
10.617 5.421 -1.142 13.000 29
9.357 4.748 -1.837 7.000 3
10.152 5.133 -1.809 5.000 0
11.260 5.676 -1.804 3.000 29
10.821 5.441 -1.542 19.000 29
10.861 5.451 -1.357 9.000 29
10.837 5.431 -1.165 11.000 29
9.349 4.655 -1.831 5.000 0
10.099 5.010 -1.796 8.000 3
11.272 5.575 -1.803 3.000 29
11.174 5.513 -1.590 11.000 29
11.064 5.447 -1.381 10.000 29
11.068 5.441 -1.188 12.000 29
9.386 4.584 -1.835 5.000 0
10.135 4.931 -1.799 41.000 3
11.283 5.473 -1.803 3.000 29
11.493 5.560 -1.634 11.000 29
11.287 5.449 -1.408 10.000 29
11.292 5.442 -1.213 10.000 29
9.433 4.516 -1.841 4.000 0
10.250 4.888 -1.817 52.000 3
11.289 5.368 -1.802 4.000 29
11.835 5.613 -1.681 2.000 29
11.549 5.465 -1.440 10.000 29
11.548 5.456 -1.241 10.000 29
9.443 4.430 -1.841 4.000 0
10.348 4.837 -1.832 18.000 3
11.272 5.252 -1.797 5.000 0
11.892 5.526 -1.688 4.000 29
11.874 5.505 -1.480 5.000 29
11.935 5.525 -1.283 10.000 29
9.452 4.344 -1.840 4.000 0
10.259 4.697 -1.815 6.000 0
11.280 5.148 -1.797 6.000 0
12.119 5.515 -1.720 5.000 29
12.090 5.489 -1.507 9.000 29
12.069 5.471 -1.298 9.000 29
9.452 4.253 -1.838 4.000 0
10.286 4.611 -1.818 5.000 0
11.169 4.990 -1.779 26.000 3
12.528 5.582 -1.778 4.000 29
12.437 5.528 -1.551 5.000 29
12.351 5.480 -1.330 9.000 29
9.459 4.166 -1.838 4.000 0
10.312 4.524 -1.822 4.000 0
11.292 4.938 -1.798 63.000 3
12.576 5.483 -1.784 4.000 29
14.009 6.093 -1.748 4.000 0
12.758 5.539 -1.375 12.000 29
9.447 4.071 -1.834 4.000 0
10.321 4.430 -1.822 5.000 0
11.429 4.889 -1.819 36.000 3
12.545 5.350 -1.781 4.000 29
14.079 5.989 -1.758 3.000 0
12.895 5.475 -1.392 1.000 29
9.455 3.983 -1.834 3.000 0
10.325 4.332 -1.822 4.000 0
11.338 4.741 -1.804 6.000 3
12.517 5.217 -1.777 5.000 0
14.054 5.843 -1.757 3.000 0
13.262 5.502 -1.434 3.000 29
9.450 3.890 -1.832 3.000 0
10.318 4.230 -1.820 4.000 0
11.337 4.631 -1.804 5.000 0
12.383 5.043 -1.759 11.000 3
14.057 5.709 -1.759 4.000 0
13.632 5.524 -1.477 8.000 29
9.454 3.801 -1.832 3.000 0
10.307 4.126 -1.819 3.000 0
11.372 4.536 -1.811 5.000 0
12.475 4.961 -1.774 62.000 3
14.068 5.579 -1.762 3.000 0
15.907 6.294 -1.727 4.000 0
9.465 3.715 -1.834 3.000 0
10.305 4.027 -1.818 4.000 0
11.355 4.421 -1.809 5.000 0
12.657 4.912 -1.801 36.000 3
14.003 5.420 -1.757 4.000 0
15.878 6.130 -1.727 4.000 0
9.468 3.626 -1.834 4.000 0
10.314 3.933 -1.820 4.000 0
11.361 4.316 -1.811 4.000 0
12.517 4.738 -1.783 7.000 0
13.969 5.272 -1.755 6.000 0
15.835 5.962 -1.727 4.000 0
9.462 3.533 -1.833 4.000 0
10.297 3.827 -1.817 3.000 0
11.344 4.200 -1.809 4.000 0
12.525 4.622 -1.786 5.000 0
13.779 5.068 -1.734 12.000 3
15.777 5.788 -1.725 4.000 0
9.478 3.448 -1.836 4.000 0
10.300 3.730 -1.819 4.000 0
11.315 4.081 -1.806 4.000 0
12.533 4.504 -1.790 5.000 0
13.880 4.974 -1.751 65.000 3
15.798 5.645 -1.731 4.000 0
9.474 3.357 -1.836 5.000 0
10.299 3.632 -1.819 5.000 0
11.303 3.970 -1.806 4.000 0
12.516 4.380 -1.790 5.000 0
14.125 4.926 -1.785 34.000 3
15.760 5.481 -1.732 5.000 0
9.475 3.267 -1.836 5.000 0
10.304 3.536 -1.822 4.000 0
11.293 3.859 -1.806 5.000 0
12.474 4.246 -1.786 4.000 0
13.940 4.730 -1.765 7.000 0
15.686 5.307 -1.729 5.000 0
9.474 3.178 -1.837 4.000 0
10.300 3.438 -1.822 5.000 0
11.283 3.749 -1.806 5.000 0
12.462 4.124 -1.787 4.000 0
13.962 4.604 -1.771 6.000 0
15.416 5.068 -1.704 19.000 3
9.474 3.087 -1.837 4.000 0
10.298 3.339 -1.823 5.000 0
11.280 3.641 -1.808 6.000 0
12.435 3.998 -1.786 4.000 0
13.970 4.476 -1.776 5.000 0
15.622 4.989 -1.731 62.000 3
9.474 2.999 -1.838 4.000 0
10.292 3.241 -1.823 5.000 0
11.277 3.534 -1.809 6.000 0
12.417 3.876 -1.787 5.000 0
13.904 4.323 -1.772 4.000 0
15.824 4.904 -1.759 16.000 3
9.477 2.911 -1.840 4.000 0
10.290 3.144 -1.825 5.000 0
11.273 3.428 -1.811 6.000 0
12.396 3.753 -1.786 5.000 0
13.834 4.172 -1.767 4.000 0
15.601 4.687 -1.740 8.000 0
9.466 2.818 -1.839 3.000 0
10.295 3.048 -1.827 5.000 0
11.264 3.319 -1.812 6.000 0
12.403 3.638 -1.791 7.000 0
13.810 4.034 -1.768 5.000 0
15.573 4.532 -1.742 6.000 0
9.467 2.730 -1.841 4.000 0
10.284 2.949 -1.827 4.000 0
11.243 3.207 -1.811 6.000 0
12.372 3.513 -1.789 6.000 0
13.787 3.898 -1.769 6.000 0
15.507 4.368 -1.739 5.000 0
9.475 2.644 -1.843 3.000 0
10.280 2.853 -1.828 4.000 0
11.230 3.099 -1.811 6.000 0
12.368 3.397 -1.792 6.000 0
13.774 3.766 -1.772 7.000 0
15.439 4.205 -1.737 5.000 0
9.474 2.556 -1.845 3.000 0
10.275 2.756 -1.829 4.000 0
11.229 2.996 -1.814 5.000 0
12.331 3.273 -1.790 6.000 0
13.716 3.624 -1.768 7.000 0
15.411 4.054 -1.740 5.000 0
9.482 2.471 -1.848 3.000 0
10.260 2.658 -1.829 3.000 0
11.219 2.890 -1.814 5.000 0
12.326 3.158 -1.792 6.000 0
13.734 3.502 -1.775 6.000 0
15.383 3.905 -1.741 4.000 0
9.457 2.377 -1.844 2.000 0
10.260 2.563 -1.830 3.000 0
11.224 2.787 -1.818 4.000 0
12.329 3.045 -1.796 5.000 0
13.705 3.368 -1.775 6.000 0
15.345 3.753 -1.742 6.000 0
9.459 2.291 -1.846 3.000 0
10.249 2.466 -1.831 3.000 0
11.209 2.680 -1.818 3.000 0
12.301 2.925 -1.795 5.000 0
13.670 3.233 -1.775 5.000 0
15.317 3.604 -1.744 7.000 0
9.459 2.203 -1.848 3.000 0
10.253 2.372 -1.833 3.000 0
11.211 2.577 -1.821 4.000 0
12.306 2.812 -1.799 5.000 0
13.638 3.100 -1.775 5.000 0
15.279 3.455 -1.745 7.000 0
9.455 2.117 -1.848 4.000 0
10.232 2.274 -1.832 3.000 0
11.184 2.470 -1.819 4.000 0
12.287 2.696 -1.800 4.000 0
13.642 2.975 -1.779 6.000 0
15.237 3.306 -1.745 6.000 0
9.438 2.026 -1.847 4.000 0
10.222 2.179 -1.832 4.000 0
11.175 2.366 -1.820 4.000 0
12.266 2.580 -1.800 4.000 0
13.613 2.845 -1.779 5.000 0
15.250 3.169 -1.751 6.000 0
9.444 1.941 -1.850 4.000 0
10.222 2.085 -1.834 4.000 0
11.163 2.261 -1.821 4.000 0
12.246 2.463 -1.800 5.000 0
13.608 2.720 -1.782 5.000 0
15.202 3.020 -1.750 7.000 0
9.432 1.854 -1.849 4.000 3
10.218 1.992 -1.835 5.000 0
11.159 2.160 -1.823 4.000 0
12.247 2.353 -1.803 4.000 0
13.566 2.590 -1.781 5.000 0
15.173 2.877 -1.752 5.000 0
9.413 1.766 -1.846 18.000 3
10.204 1.898 -1.835 5.000 3
11.145 2.057 -1.823 5.000 0
12.224 2.239 -1.803 5.000 0
13.549 2.463 -1.782 5.000 0
15.132 2.733 -1.751 5.000 0
9.413 1.681 -1.848 18.000 3
10.155 1.798 -1.828 12.000 3
11.153 1.958 -1.827 5.000 0
12.211 2.126 -1.804 5.000 0
13.543 2.341 -1.785 5.000 0
15.103 2.590 -1.753 5.000 0
9.407 1.595 -1.848 4.000 3
10.200 1.714 -1.838 17.000 3
11.104 1.849 -1.821 6.000 3
12.205 2.015 -1.806 6.000 0
13.533 2.217 -1.787 5.000 0
15.130 2.459 -1.760 5.000 0
9.407 1.511 -1.850 4.000 0
10.187 1.621 -1.837 4.000 3
11.116 1.753 -1.825 16.000 3
12.188 1.904 -1.806 6.000 3
13.528 2.096 -1.790 5.000 0
15.086 2.318 -1.759 6.000 0
9.413 1.428 -1.853 4.000 0
10.171 1.527 -1.836 4.000 0
11.120 1.654 -1.828 6.000 3
12.202 1.798 -1.811 24.000 3
13.490 1.969 -1.788 5.000 3
15.080 2.182 -1.762 7.000 0
9.414 1.344 -1.854 4.000 0
10.181 1.439 -1.840 4.000 0
11.107 1.553 -1.828 4.000 0
12.231 1.693 -1.818 7.000 3
13.412 1.839 -1.781 20.000 3
15.056 2.044 -1.763 8.000 0
9.421 1.263 -1.857 4.000 0
10.176 1.348 -1.841 3.000 0
11.091 1.454 -1.827 5.000 0
12.150 1.575 -1.808 6.000 0
13.513 1.733 -1.797 10.000 3
14.939 1.896 -1.753 11.000 3
9.411 1.179 -1.857 3.000 0
10.169 1.259 -1.841 3.000 0
11.102 1.358 -1.831 4.000 0
12.140 1.466 -1.809 6.000 0
13.430 1.604 -1.789 6.000 3
15.019 1.774 -1.766 11.000 3
9.405 1.095 -1.857 3.000 0
10.168 1.169 -1.842 3.000 0
11.094 1.258 -1.832 3.000 0
12.144 1.360 -1.812 5.000 0
13.434 1.485 -1.792 5.000 0
14.968 1.635 -1.763 6.000 3
9.414 1.014 -1.860 3.000 0
10.175 1.080 -1.845 3.000 0
11.102 1.163 -1.835 3.000 0
12.148 1.254 -1.815 4.000 0
13.419 1.367 -1.793 5.000 0
14.954 1.503 -1.764 6.000 0
9.409 0.931 -1.860 3.000 0
10.162 0.990 -1.844 3.000 0
11.082 1.064 -1.833 3.000 0
12.136 1.147 -1.815 4.000 0
13.427 1.250 -1.796 5.000 0
14.950 1.370 -1.767 6.000 0
9.393 0.847 -1.858 3.000 0
10.165 0.902 -1.846 3.000 0
11.076 0.965 -1.834 4.000 0
12.151 1.042 -1.819 4.000 0
13.400 1.130 -1.795 4.000 0
14.949 1.240 -1.769 5.000 0
9.391 0.765 -1.859 3.000 0
10.154 0.812 -1.846 3.000 0
11.075 0.869 -1.836 4.000 0
12.129 0.935 -1.818 4.000 0
13.396 1.013 -1.797 4.000 0
14.923 1.107 -1.769 4.000 0
9.391 0.684 -1.860 3.000 0
10.137 0.722 -1.844 2.000 0
11.064 0.772 -1.835 3.000 0
12.103 0.826 -1.816 4.000 0
13.400 0.896 -1.799 5.000 0
14.907 0.975 -1.769 4.000 0
9.391 0.602 -1.861 3.000 0
10.134 0.634 -1.845 3.000 0
11.060 0.676 -1.836 4.000 0
12.084 0.721 -1.814 4.000 0
13.389 0.779 -1.800 5.000 0
14.908 0.846 -1.772 5.000 0
9.380 0.520 -1.860 3.000 0
10.152 0.548 -1.849 3.000 0
11.061 0.581 -1.838 4.000 0
12.101 0.617 -1.818 4.000 0
13.389 0.663 -1.802 5.000 0
14.889 0.716 -1.771 4.000 0
9.374 0.439 -1.860 3.000 0
10.135 0.460 -1.847 4.000 0
11.053 0.484 -1.838 4.000 0
12.092 0.512 -1.819 4.000 0
13.353 0.546 -1.798 5.000 0
14.884 0.587 -1.773 6.000 0
9.375 0.358 -1.861 4.000 0
10.134 0.372 -1.848 4.000 0
11.041 0.389 -1.837 5.000 0
12.093 0.409 -1.820 5.000 0
13.335 0.432 -1.797 6.000 0
14.870 0.460 -1.773 5.000 0
9.374 0.278 -1.862 3.000 0
10.126 0.286 -1.848 4.000 0
11.028 0.294 -1.836 5.000 0
12.095 0.305 -1.822 5.000 0
13.362 0.317 -1.803 5.000 0
14.855 0.330 -1.773 6.000 0
9.373 0.197 -1.863 3.000 0
10.117 0.198 -1.847 4.000 0
11.028 0.200 -1.837 5.000 0
12.078 0.202 -1.820 4.000 0
13.345 0.203 -1.802 5.000 0
14.857 0.204 -1.775 6.000 0
9.382 0.118 -1.865 3.000 0
10.131 0.113 -1.851 3.000 0
11.037 0.107 -1.839 5.000 0
12.088 0.098 -1.823 5.000 0
13.340 0.089 -1.802 5.000 0
14.882 0.078 -1.779 6.000 0
9.369 0.038 -1.863 3.000 0
10.119 0.027 -1.849 4.000 0
11.047 0.012 -1.842 4.000 0
12.098 -0.004 -1.826 4.000 0
13.350 -0.024 -1.805 4.000 0
14.890 -0.049 -1.781 6.000 0
9.371 -0.040 -1.865 3.000 0
10.133 -0.059 -1.853 3.000 0
11.043 -0.081 -1.843 4.000 0
12.095 -0.107 -1.826 4.000 0
13.364 -0.138 -1.808 6.000 0
14.861 -0.175 -1.779 4.000 0
9.376 -0.120 -1.867 2.000 0
10.145 -0.145 -1.856 3.000 0
11.051 -0.174 -1.845 3.000 0
12.092 -0.208 -1.827 4.000 0
13.356 -0.250 -1.808 4.000 0
14.883 -0.302 -1.783 4.000 0
9.381 -0.199 -1.869 2.000 0
10.136 -0.231 -1.855 3.000 0
11.046 -0.267 -1.845 3.000 0
12.105 -0.311 -1.830 4.000 0
13.368 -0.363 -1.811 4.000 0
14.939 -0.429 -1.791 3.000 0
9.390 -0.278 -1.871 2.000 0
10.138 -0.315 -1.856 2.000 0
11.055 -0.360 -1.847 3.000 0
12.084 -0.412 -1.828 4.000 0
13.376 -0.476 -1.812 4.000 0
14.922 -0.553 -1.790 4.000 0
9.385 -0.356 -1.871 2.000 0
10.146 -0.401 -1.859 2.000 0
11.058 -0.453 -1.849 3.000 0
12.128 -0.515 -1.835 4.000 0
13.384 -0.589 -1.815 3.000 0
14.895 -0.677 -1.787 4.000 0
9.398 -0.436 -1.875 2.000 0
10.153 -0.485 -1.861 3.000 0
11.073 -0.546 -1.852 3.000 0
12.148 -0.618 -1.839 3.000 0
13.395 -0.701 -1.817 4.000 0
14.934 -0.806 -1.793 4.000 0
9.392 -0.515 -1.874 2.000 0
10.160 -0.572 -1.863 2.000 0
11.082 -0.640 -1.855 3.000 0
12.127 -0.719 -1.837 3.000 0
13.393 -0.814 -1.818 4.000 0
14.937 -0.930 -1.794 4.000 0
9.400 -0.593 -1.877 2.000 0
10.163 -0.657 -1.865 3.000 0
11.069 -0.731 -1.853 3.000 0
12.127 -0.820 -1.837 3.000 0
13.392 -0.925 -1.818 4.000 0
14.948 -1.056 -1.796 4.000 0
9.395 -0.672 -1.877 2.000 0
10.136 -0.739 -1.860 3.000 0
11.078 -0.824 -1.856 3.000 0
12.133 -0.921 -1.839 4.000 0
13.402 -1.038 -1.820 4.000 0
14.936 -1.180 -1.795 6.000 0
9.390 -0.749 -1.877 2.000 0
10.161 -0.825 -1.866 3.000 0
11.073 -0.915 -1.856 3.000 0
12.152 -1.023 -1.843 3.000 0
13.398 -1.149 -1.821 6.000 0
14.940 -1.305 -1.797 7.000 0
9.391 -0.827 -1.878 3.000 0
10.157 -0.910 -1.867 2.000 0
11.047 -1.005 -1.853 2.000 0
12.135 -1.123 -1.842 5.000 0
13.410 -1.261 -1.823 6.000 0
14.944 -1.428 -1.798 7.000 0
9.397 -0.905 -1.880 2.000 0
10.164 -0.994 -1.869 3.000 0
11.059 -1.097 -1.856 4.000 0
12.104 -1.219 -1.838 4.000 0
13.372 -1.366 -1.819 6.000 0
15.039 -1.561 -1.811 12.000 3
9.393 -0.982 -1.881 2.000 0
10.163 -1.077 -1.870 3.000 0
11.067 -1.189 -1.858 4.000 0
12.115 -1.319 -1.841 5.000 0
13.402 -1.480 -1.825 6.000 3
14.844 -1.663 -1.788 19.000 3
9.393 -1.060 -1.882 2.000 0
10.166 -1.160 -1.872 3.000 0
11.072 -1.280 -1.861 4.000 0
12.115 -1.419 -1.842 5.000 0
13.444 -1.594 -1.832 17.000 3
14.961 -1.798 -1.803 3.000 3
9.391 -1.135 -1.883 3.000 0
10.151 -1.242 -1.871 3.000 0
11.053 -1.368 -1.859 4.000 0
12.120 -1.518 -1.845 5.000 3
13.306 -1.687 -1.814 21.000 3
15.005 -1.927 -1.810 2.000 29
9.384 -1.212 -1.883 3.000 0
10.144 -1.324 -1.871 3.000 0
11.048 -1.458 -1.859 4.000 0
12.126 -1.617 -1.847 22.000 3
13.404 -1.808 -1.829 2.000 3
15.022 -2.050 -1.814 2.000 29
9.375 -1.286 -1.883 3.000 0
10.144 -1.405 -1.873 4.000 0
11.054 -1.547 -1.862 5.000 3
12.037 -1.702 -1.835 23.000 3
13.433 -1.921 -1.835 2.000 29
15.006 -2.168 -1.813 2.000 29
9.372 -1.362 -1.885 3.000 0
10.136 -1.486 -1.873 3.000 0
11.085 -1.641 -1.869 24.000 3
12.120 -1.812 -1.850 1.000 3
13.454 -2.032 -1.839 2.000 29
13.482 -2.057 -1.631 5.000 29
9.368 -1.437 -1.886 3.000 0
10.151 -1.570 -1.878 3.000 3
10.973 -1.712 -1.852 19.000 3
12.159 -1.915 -1.857 2.000 0
13.099 -2.084 -1.793 2.000 29
12.868 -2.067 -1.558 5.000 29
9.360 -1.511 -1.886 3.000 0
10.142 -1.650 -1.878 19.000 3
11.076 -1.818 -1.872 2.000 3
12.124 -2.008 -1.854 2.000 0
13.113 -2.192 -1.797 2.000 29
12.655 -2.136 -1.534 13.000 29
9.372 -1.589 -1.892 4.000 3
10.083 -1.723 -1.870 19.000 3
11.067 -1.906 -1.873 2.000 0
12.154 -2.110 -1.861 2.000 29
13.464 -2.359 -1.847 2.000 29
12.433 -2.197 -1.509 43.000 29
9.353 -1.661 -1.890 20.000 3
10.137 -1.813 -1.882 2.000 3
11.054 -1.992 -1.873 2.000 0
12.103 -2.198 -1.856 2.000 29
13.429 -2.459 -1.845 2.000 29
12.352 -2.282 -1.502 61.000 29
9.300 -1.725 -1.882 24.000 3
10.122 -1.890 -1.882 2.000 0
11.048 -2.078 -1.875 1.000 0
12.108 -2.295 -1.860 2.000 29
13.395 -2.558 -1.843 2.000 29
12.330 -2.375 -1.501 65.000 29
9.343 -1.807 -1.894 2.000 3
10.132 -1.972 -1.887 2.000 0
11.053 -2.166 -1.879 2.000 0
12.102 -2.389 -1.862 2.000 29
13.340 -2.653 -1.839 2.000 29
12.310 -2.468 -1.502 29.000 29
9.348 -1.882 -1.898 2.000 0
10.119 -2.050 -1.888 1.000 0
11.041 -2.251 -1.880 2.000 0
12.105 -2.485 -1.866 2.000 29
13.341 -2.759 -1.843 2.000 29
12.298 -2.562 -1.503 47.000 29
9.332 -1.952 -1.898 1.000 0
10.097 -2.125 -1.887 1.000 0
11.045 -2.338 -1.884 2.000 0
12.039 -2.566 -1.860 2.000 29
13.344 -2.863 -1.847 2.000 29
12.293 -2.657 -1.506 49.000 29
9.332 -2.025 -1.902 1.000 0
10.076 -2.199 -1.887 2.000 0
11.016 -2.418 -1.884 2.000 0
12.016 -2.654 -1.860 2.000 29
13.332 -2.964 -1.850 3.000 29
12.294 -2.751 -1.510 48.000 29
9.315 -2.094 -1.902 2.000 0
10.064 -2.274 -1.889 1.000 0
10.980 -2.495 -1.881 2.000 0
11.996 -2.742 -1.861 2.000 29
13.268 -3.052 -1.845 3.000 29
12.288 -2.845 -1.512 42.000 29
9.296 -2.162 -1.903 2.000 0
10.046 -2.348 -1.890 2.000 0
10.955 -2.573 -1.882 2.000 0
11.965 -2.827 -1.861 2.000 29
13.255 -3.150 -1.848 2.000 29
12.302 -2.942 -1.518 40.000 29
9.283 -2.230 -1.904 2.000 0
10.032 -2.420 -1.892 2.000 0
10.930 -2.650 -1.882 2.000 0
11.952 -2.913 -1.864 2.000 0
13.241 -3.245 -1.851 2.000 29
12.302 -3.034 -1.523 32.000 29
9.265 -2.295 -1.905 2.000 0
10.033 -2.496 -1.897 2.000 0
10.894 -2.723 -1.881 2.000 0
11.938 -3.000 -1.866 3.000 0
13.193 -3.334 -1.850 2.000 29
12.329 -3.133 -1.531 29.000 29
9.254 -2.363 -1.908 2.000 0
9.950 -2.551 -1.886 1.000 0
10.883 -2.803 -1.884 2.000 0
11.924 -3.086 -1.870 3.000 0
13.182 -3.429 -1.854 2.000 29
12.363 -3.234 -1.541 25.000 29
9.224 -2.424 -1.907 2.000 0
9.940 -2.622 -1.890 2.000 0
10.826 -2.868 -1.880 2.000 0
11.868 -3.158 -1.867 2.000 0
13.123 -3.510 -1.852 3.000 29
12.399 -3.334 -1.551 20.000 29
9.200 -2.486 -1.908 2.000 0
9.917 -2.689 -1.891 2.000 0
10.812 -2.944 -1.884 2.000 0
11.831 -3.235 -1.868 2.000 0
13.039 -3.583 -1.847 2.000 29
12.483 -3.448 -1.568 14.000 29
9.163 -2.544 -1.906 1.000 0
9.889 -2.754 -1.892 2.000 0
10.806 -3.021 -1.889 2.000 0
11.811 -3.315 -1.871 2.000 0
13.062 -3.684 -1.858 2.000 29
12.576 -3.565 -1.586 10.000 29
9.143 -2.605 -1.908 1.000 0
9.857 -2.817 -1.892 2.000 0
10.762 -3.087 -1.888 2.000 0
11.792 -3.397 -1.876 2.000 0
13.097 -3.788 -1.870 2.000 0
12.429 -3.613 -1.575 0.000 29
9.119 -2.665 -1.910 2.000 0
9.841 -2.885 -1.897 2.000 0
10.704 -3.147 -1.885 2.000 0
11.757 -3.470 -1.878 2.000 0
13.051 -3.867 -1.872 2.000 0
14.561 -4.335 -1.854 2.000 0
9.095 -2.722 -1.911 2.000 0
9.810 -2.944 -1.897 2.000 0
10.687 -3.218 -1.890 2.000 0
11.721 -3.541 -1.880 2.000 0
13.025 -3.951 -1.877 2.000 0
14.489 -4.415 -1.854 2.000 0
9.042 -2.771 -1.908 2.000 0
9.768 -3.001 -1.897 2.000 0
10.650 -3.281 -1.891 2.000 0
11.657 -3.603 -1.877 2.000 0
12.939 -4.015 -1.873 2.000 0
14.447 -4.501 -1.858 2.000 0
9.030 -2.830 -1.913 2.000 0
9.760 -3.066 -1.903 3.000 0
10.618 -3.344 -1.894 2.000 0
11.643 -3.678 -1.884 2.000 0
12.896 -4.088 -1.876 2.000 0
14.480 -4.609 -1.872 3.000 0
8.981 -2.876 -1.910 2.000 0
9.703 -3.114 -1.900 3.000 0
10.570 -3.400 -1.894 2.000 0
11.591 -3.740 -1.885 1.000 0
12.834 -4.155 -1.877 2.000 0
14.521 -4.718 -1.888 13.000 3
8.953 -2.927 -1.912 2.000 0
9.654 -3.162 -1.899 2.000 0
10.534 -3.459 -1.896 2.000 0
11.573 -3.810 -1.892 2.000 0
12.811 -4.230 -1.884 2.000 0
14.361 -4.759 -1.878 29.000 3
8.915 -2.974 -1.912 2.000 0
9.617 -3.214 -1.900 2.000 0
10.485 -3.511 -1.897 2.000 0
11.525 -3.869 -1.894 2.000 0
12.711 -4.280 -1.880 2.000 0
14.131 -4.774 -1.860 34.000 3
8.887 -3.023 -1.915 2.000 0
9.584 -3.265 -1.903 2.000 0
10.463 -3.571 -1.902 2.000 0
11.479 -3.927 -1.896 2.000 0
12.698 -4.356 -1.889 2.000 0
13.920 -4.790 -1.844 33.000 3
8.853 -3.068 -1.917 3.000 0
9.553 -3.315 -1.906 2.000 0
10.412 -3.619 -1.903 1.000 0
11.442 -3.985 -1.901 2.000 0
12.645 -4.415 -1.892 2.000 0
13.778 -4.825 -1.837 15.000 3
8.803 -3.107 -1.915 2.000 0
9.478 -3.348 -1.901 2.000 0
10.358 -3.664 -1.903 1.000 0
11.367 -4.029 -1.899 2.000 0
12.518 -4.448 -1.886 2.000 0
13.694 -4.879 -1.839 9.000 3
8.756 -3.144 -1.914 2.000 0
9.481 -3.407 -1.912 2.000 0
10.325 -3.715 -1.908 1.000 0
11.327 -4.082 -1.904 2.000 0
12.432 -4.490 -1.885 2.000 0
13.671 -4.950 -1.849 3.000 3
8.717 -3.183 -1.916 2.000 0
9.419 -3.441 -1.910 2.000 0
10.268 -3.755 -1.908 1.000 0
11.266 -4.127 -1.906 2.000 0
12.377 -4.542 -1.889 2.000 0
13.704 -5.041 -1.867 2.000 0
8.697 -3.227 -1.921 3.000 0
9.376 -3.481 -1.911 2.000 0
10.245 -3.807 -1.915 2.000 0
11.217 -4.173 -1.909 2.000 0
12.320 -4.591 -1.893 2.000 0
13.616 -5.085 -1.869 2.000 0
8.635 -3.254 -1.918 2.000 0
9.318 -3.512 -1.910 2.000 0
10.193 -3.844 -1.917 2.000 0
11.178 -4.220 -1.915 2.000 0
12.231 -4.624 -1.892 3.000 0
13.563 -5.138 -1.876 2.000 0
8.588 -3.284 -1.918 2.000 0
9.277 -3.547 -1.913 2.000 0
10.126 -3.873 -1.916 1.000 0
11.127 -4.260 -1.919 2.000 0
12.287 -4.710 -1.915 8.000 3
13.470 -5.172 -1.878 2.000 0
8.558 -3.319 -1.922 2.000 0
9.225 -3.576 -1.913 2.000 0
10.076 -3.907 -1.919 1.000 0
11.047 -4.286 -1.918 2.000 0
12.235 -4.752 -1.920 10.000 3
13.412 -5.218 -1.884 2.000 0
8.504 -3.343 -1.921 2.000 0
9.178 -3.606 -1.915 2.000 0
10.028 -3.940 -1.921 2.000 0
10.990 -4.319 -1.921 1.000 0
12.125 -4.769 -1.917 21.000 3
13.336 -5.253 -1.888 2.000 0
8.465 -3.370 -1.923 2.000 0
9.135 -3.634 -1.917 2.000 0
9.964 -3.963 -1.921 1.000 0
10.896 -4.335 -1.917 2.000 0
12.019 -4.785 -1.914 25.000 3
13.274 -5.290 -1.895 2.000 0
8.430 -3.398 -1.927 2.000 0
9.101 -3.664 -1.922 2.000 0
9.915 -3.991 -1.925 2.000 0
10.781 -4.339 -1.911 1.000 0
11.905 -4.793 -1.911 28.000 3
13.226 -5.330 -1.903 2.000 0
8.380 -3.417 -1.926 2.000 0
9.044 -3.683 -1.922 2.000 0
9.839 -4.004 -1.922 1.000 0
10.731 -4.366 -1.915 1.000 0
11.818 -4.810 -1.911 33.000 3
13.128 -5.346 -1.905 2.000 0
8.333 -3.435 -1.927 2.000 0
8.985 -3.699 -1.921 2.000 0
9.805 -4.033 -1.928 1.000 0
10.660 -4.382 -1.915 2.000 0
11.716 -4.816 -1.909 37.000 3
13.057 -5.370 -1.910 2.000 0
8.271 -3.445 -1.923 2.000 0
8.937 -3.717 -1.923 1.000 0
9.748 -4.049 -1.930 1.000 0
10.568 -4.387 -1.912 1.000 0
11.630 -4.827 -1.910 39.000 3
12.924 -5.365 -1.907 2.000 0
8.246 -3.469 -1.929 2.000 0
8.884 -3.730 -1.924 2.000 0
9.668 -4.054 -1.927 1.000 0
10.507 -4.401 -1.915 1.000 0
11.519 -4.823 -1.905 34.000 3
12.784 -5.352 -1.902 2.000 0
8.203 -3.482 -1.930 2.000 0
8.834 -3.742 -1.925 2.000 0
9.606 -4.063 -1.927 1.000 0
10.445 -4.412 -1.917 1.000 0
11.435 -4.827 -1.906 34.000 3
12.726 -5.371 -1.909 2.000 0
8.141 -3.485 -1.927 2.000 0
8.780 -3.750 -1.924 2.000 0
9.561 -4.076 -1.930 1.000 0
10.360 -4.410 -1.914 1.000 0
11.330 -4.819 -1.902 33.000 3
12.604 -5.358 -1.906 2.000 0
8.097 -3.494 -1.928 2.000 0
8.754 -3.767 -1.931 2.000 0
9.493 -4.077 -1.929 1.000 0
10.282 -4.409 -1.914 1.000 0
11.264 -4.824 -1.905 33.000 3
12.494 -5.347 -1.904 2.000 0
8.067 -3.506 -1.932 2.000 0
8.685 -3.764 -1.927 2.000 0
9.443 -4.083 -1.931 1.000 0
10.239 -4.419 -1.918 2.000 0
11.207 -4.830 -1.910 37.000 3
12.395 -5.337 -1.904 2.000 0
8.032 -3.514 -1.935 2.000 0
8.637 -3.767 -1.928 2.000 0
9.377 -4.080 -1.930 2.000 0
10.197 -4.427 -1.923 1.000 0
11.117 -4.819 -1.909 34.000 3
12.282 -5.317 -1.903 2.000 0
7.980 -3.512 -1.933 2.000 0
8.603 -3.774 -1.932 2.000 0
9.308 -4.072 -1.928 1.000 0
10.107 -4.411 -1.919 1.000 0
11.063 -4.820 -1.913 38.000 3
12.170 -5.294 -1.900 2.000 0
7.933 -3.510 -1.932 2.000 0
8.547 -3.769 -1.931 2.000 0
9.285 -4.082 -1.935 2.000 0
10.039 -4.402 -1.919 1.000 0
11.011 -4.818 -1.917 33.000 3
12.116 -5.293 -1.905 2.000 0
7.887 -3.507 -1.932 2.000 0
8.503 -3.767 -1.932 2.000 0
9.225 -4.073 -1.934 1.000 0
9.995 -4.400 -1.922 1.000 0
10.962 -4.815 -1.921 31.000 3
11.998 -5.260 -1.901 2.000 0
7.863 -3.511 -1.936 2.000 0
8.461 -3.762 -1.932 2.000 0
9.175 -4.066 -1.935 1.000 0
9.938 -4.390 -1.924 1.000 0
10.908 -4.806 -1.925 29.000 3
11.934 -5.247 -1.904 2.000 0
7.834 -3.510 -1.939 2.000 0
8.421 -3.757 -1.934 2.000 0
9.131 -4.058 -1.937 1.000 0
9.889 -4.380 -1.925 1.000 0
10.855 -4.795 -1.928 25.000 3
11.882 -5.236 -1.909 2.000 0
7.789 -3.500 -1.937 2.000 0
8.370 -3.744 -1.933 2.000 0
9.077 -4.044 -1.935 2.000 0
9.815 -4.357 -1.922 1.000 0
10.809 -4.784 -1.932 21.000 3
11.785 -5.202 -1.906 2.000 0
7.752 -3.491 -1.937 2.000 0
8.322 -3.730 -1.931 2.000 0
9.022 -4.026 -1.934 2.000 0
9.785 -4.350 -1.927 1.000 0
10.780 -4.777 -1.938 9.000 3
11.678 -5.160 -1.902 2.000 0
7.721 -3.483 -1.939 2.000 0
8.304 -3.727 -1.936 2.000 0
8.982 -4.013 -1.935 1.000 0
9.739 -4.333 -1.929 1.000 0
10.687 -4.739 -1.932 8.000 3
11.634 -5.143 -1.906 2.000 0
7.688 -3.471 -1.939 2.000 0
8.240 -3.700 -1.930 2.000 0
8.945 -3.998 -1.937 1.000 0
9.686 -4.311 -1.928 1.000 0
10.580 -4.691 -1.924 4.000 3
11.512 -5.087 -1.897 2.000 0
7.672 -3.465 -1.943 2.000 0
8.220 -3.692 -1.934 2.000 0
8.919 -3.986 -1.939 1.000 0
9.648 -4.292 -1.930 1.000 0
10.480 -4.643 -1.915 2.000 0
11.472 -5.065 -1.901 2.000 0
7.637 -3.448 -1.941 1.000 0
8.168 -3.666 -1.929 2.000 0
8.859 -3.956 -1.935 2.000 0
9.581 -4.258 -1.925 1.000 0
10.449 -4.624 -1.919 2.000 0
11.418 -5.033 -1.902 2.000 3
7.609 -3.432 -1.942 1.000 0
8.152 -3.655 -1.933 2.000 0
8.824 -3.935 -1.935 2.000 0
9.560 -4.241 -1.929 1.000 0
10.421 -4.603 -1.923 2.000 0
11.281 -4.962 -1.889 6.000 3
7.557 -3.403 -1.936 1.000 0
8.108 -3.628 -1.930 2.000 0
8.792 -3.912 -1.936 2.000 0
9.525 -4.217 -1.930 2.000 0
10.367 -4.567 -1.921 2.000 0
11.193 -4.910 -1.883 9.000 3
7.538 -3.387 -1.937 1.000 0
8.092 -3.612 -1.933 2.000 0
8.774 -3.893 -1.939 2.000 0
9.483 -4.185 -1.929 2.000 0
10.323 -4.533 -1.921 2.000 0
11.139 -4.870 -1.882 20.000 3
7.508 -3.363 -1.935 2.000 0
8.081 -3.596 -1.936 2.000 0
8.734 -3.863 -1.936 2.000 0
9.461 -4.161 -1.931 2.000 0
10.244 -4.482 -1.913 2.000 0
11.144 -4.852 -1.890 32.000 3
7.498 -3.348 -1.938 2.000 0
8.053 -3.570 -1.935 3.000 0
8.706 -3.835 -1.936 2.000 0
9.411 -4.121 -1.927 2.000 0
10.233 -4.457 -1.917 2.000 0
11.158 -4.836 -1.899 45.000 3
7.484 -3.327 -1.939 2.000 0
8.031 -3.545 -1.934 3.000 0
8.674 -3.803 -1.933 2.000 0
9.398 -4.096 -1.929 2.000 0
10.235 -4.435 -1.923 2.000 0
11.194 -4.826 -1.912 50.000 3
7.470 -3.305 -1.939 2.000 0
8.016 -3.521 -1.935 2.000 0
8.650 -3.773 -1.933 1.000 0
9.363 -4.058 -1.927 2.000 0
10.200 -4.395 -1.921 1.000 0
11.224 -4.810 -1.922 35.000 3
7.458 -3.281 -1.940 2.000 0
8.000 -3.493 -1.935 2.000 0
8.651 -3.751 -1.937 2.000 0
9.373 -4.038 -1.933 2.000 0
10.165 -4.352 -1.919 2.000 0
11.221 -4.777 -1.926 22.000 3
7.445 -3.256 -1.939 2.000 0
7.973 -3.460 -1.931 2.000 0
8.629 -3.717 -1.935 2.000 0
9.349 -4.000 -1.932 2.000 0
10.170 -4.324 -1.924 2.000 0
11.217 -4.742 -1.930 8.000 3
7.426 -3.226 -1.937 2.000 0
7.964 -3.432 -1.932 2.000 0
8.598 -3.677 -1.931 2.000 0
9.318 -3.958 -1.928 2.000 0
10.146 -4.281 -1.922 2.000 0
11.090 -4.652 -1.911 3.000 0
7.427 -3.202 -1.939 2.000 0
7.952 -3.401 -1.931 2.000 0
8.584 -3.643 -1.930 2.000 0
9.306 -3.921 -1.928 2.000 0
10.130 -4.240 -1.922 2.000 0
11.076 -4.607 -1.911 4.000 0
7.417 -3.173 -1.938 2.000 0
7.947 -3.371 -1.931 2.000 0
8.588 -3.614 -1.933 3.000 0
9.296 -3.883 -1.927 2.000 0
10.130 -4.202 -1.924 2.000 0
11.053 -4.556 -1.909 2.000 0
7.407 -3.141 -1.936 2.000 0
7.935 -3.336 -1.929 3.000 0
8.584 -3.580 -1.932 3.000 0
9.282 -3.842 -1.925 2.000 0
10.108 -4.153 -1.920 2.000 0
11.066 -4.517 -1.912 3.000 0
7.424 -3.119 -1.941 2.000 0
7.932 -3.304 -1.929 3.000 0
8.559 -3.535 -1.927 2.000 0
9.273 -3.800 -1.924 2.000 0
10.137 -4.124 -1.927 2.000 0
11.058 -4.468 -1.912 3.000 0
7.409 -3.082 -1.937 2.000 0
7.934 -3.271 -1.929 2.000 0
8.571 -3.503 -1.930 3.000 0
9.260 -3.755 -1.921 2.000 0
10.112 -4.070 -1.921 2.000 0
11.098 -4.435 -1.918 3.000 0
7.401 -3.047 -1.934 2.000 0
7.942 -3.239 -1.930 3.000 0
8.568 -3.464 -1.928 3.000 0
9.269 -3.717 -1.922 3.000 0
10.119 -4.027 -1.922 2.000 0
11.078 -4.377 -1.914 3.000 0
7.410 -3.016 -1.934 3.000 0
7.941 -3.202 -1.928 2.000 0
8.542 -3.414 -1.921 2.000 0
9.279 -3.677 -1.922 3.000 0
10.116 -3.978 -1.920 2.000 0
11.123 -4.342 -1.920 3.000 0
7.426 -2.987 -1.937 2.000 0
7.957 -3.170 -1.930 3.000 0
8.567 -3.382 -1.925 2.000 0
9.263 -3.626 -1.917 2.000 0
10.119 -3.929 -1.919 3.000 0
11.123 -4.286 -1.918 3.000 0
7.429 -2.951 -1.935 2.000 0
7.963 -3.133 -1.930 3.000 0
8.592 -3.349 -1.928 3.000 0
9.281 -3.586 -1.918 3.000 0
10.135 -3.884 -1.919 2.000 0
11.155 -4.242 -1.921 3.000 0
7.441 -2.917 -1.935 2.000 0
7.966 -3.092 -1.927 3.000 0
8.595 -3.305 -1.925 3.000 0
9.300 -3.544 -1.919 3.000 0
10.147 -3.835 -1.918 3.000 0
11.159 -4.184 -1.918 3.000 0
7.456 -2.883 -1.936 2.000 0
7.995 -3.061 -1.931 2.000 0
8.596 -3.260 -1.922 3.000 0
9.305 -3.496 -1.916 3.000 0
10.166 -3.788 -1.918 3.000 0
11.158 -4.123 -1.914 3.000 0
7.469 -2.847 -1.936 2.000 0
7.989 -3.014 -1.925 2.000 0
8.620 -3.221 -1.923 3.000 0
9.315 -3.448 -1.915 3.000 0
10.162 -3.730 -1.913 3.000 0
11.173 -4.067 -1.912 3.000 0
7.472 -2.806 -1.932 2.000 0
8.011 -2.977 -1.926 2.000 0
8.625 -3.174 -1.920 3.000 0
9.321 -3.398 -1.911 4.000 0
10.175 -3.677 -1.910 3.000 0
11.201 -4.014 -1.912 3.000 0
7.506 -2.775 -1.936 2.000 0
8.028 -2.937 -1.925 2.000 0
8.659 -3.136 -1.923 3.000 0
9.350 -3.355 -1.912 3.000 0
10.186 -3.621 -1.907 3.000 0
11.225 -3.957 -1.911 3.000 0
7.512 -2.733 -1.933 2.000 0
8.030 -2.890 -1.921 2.000 0
8.682 -3.092 -1.922 3.000 0
9.367 -3.304 -1.910 4.000 0
10.194 -3.563 -1.903 3.000 0
11.241 -3.894 -1.907 3.000 0
7.539 -2.696 -1.934 2.000 0
8.071 -2.855 -1.925 2.000 0
8.711 -3.049 -1.923 3.000 0
9.411 -3.262 -1.913 3.000 0
10.235 -3.514 -1.904 3.000 0
11.252 -3.829 -1.902 3.000 0
7.560 -2.656 -1.934 2.000 0
8.091 -2.811 -1.923 3.000 0
8.733 -3.002 -1.922 3.000 0
9.441 -3.213 -1.913 3.000 0
10.265 -3.460 -1.903 3.000 0
11.274 -3.766 -1.899 3.000 0
7.568 -2.610 -1.929 2.000 0
8.113 -2.767 -1.923 2.000 0
8.736 -2.948 -1.915 3.000 0
9.452 -3.157 -1.908 4.000 0
10.292 -3.404 -1.901 4.000 0
11.288 -3.699 -1.894 3.000 0
7.614 -2.576 -1.934 2.000 0
8.143 -2.724 -1.923 2.000 0
8.775 -2.904 -1.917 3.000 0
9.489 -3.108 -1.908 3.000 0
10.323 -3.348 -1.899 4.000 0
11.354 -3.648 -1.897 3.000 0
7.624 -2.530 -1.930 2.000 0
8.171 -2.680 -1.923 3.000 0
8.798 -2.854 -1.915 3.000 0
9.526 -3.058 -1.908 3.000 0
10.355 -3.290 -1.897 4.000 0
11.357 -3.574 -1.889 3.000 0
7.661 -2.490 -1.933 2.000 0
8.205 -2.636 -1.923 3.000 0
8.855 -2.813 -1.920 3.000 0
9.558 -3.004 -1.907 4.000 0
10.404 -3.236 -1.897 4.000 0
11.379 -3.505 -1.884 4.000 0
7.689 -2.447 -1.932 2.000 0
8.234 -2.589 -1.922 2.000 0
8.878 -2.760 -1.917 3.000 0
9.597 -2.951 -1.906 3.000 0
10.459 -3.183 -1.899 5.000 0
11.447 -3.449 -1.887 4.000 0
7.715 -2.401 -1.931 2.000 0
8.276 -2.545 -1.924 3.000 0
8.907 -2.708 -1.915 3.000 0
9.620 -2.892 -1.902 4.000 0
10.487 -3.119 -1.895 4.000 0
11.476 -3.379 -1.882 4.000 0
7.745 -2.356 -1.930 3.000 0
8.298 -2.493 -1.921 2.000 0
8.949 -2.657 -1.915 3.000 0
9.663 -2.838 -1.902 4.000 0
10.542 -3.062 -1.896 4.000 0
11.528 -3.314 -1.881 5.000 0
7.767 -2.307 -1.927 2.000 0
8.327 -2.443 -1.919 2.000 0
8.983 -2.604 -1.914 3.000 0
9.706 -2.782 -1.902 3.000 0
10.574 -2.997 -1.893 4.000 0
11.598 -3.254 -1.883 5.000 0
7.806 -2.262 -1.929 2.000 0
8.370 -2.395 -1.921 2.000 0
9.024 -2.552 -1.914 3.000 0
9.761 -2.729 -1.903 3.000 0
10.624 -2.937 -1.892 4.000 0
11.638 -3.183 -1.879 6.000 0
7.839 -2.215 -1.929 2.000 0
8.397 -2.343 -1.918 2.000 0
9.066 -2.499 -1.914 3.000 0
9.798 -2.669 -1.901 3.000 0
10.673 -2.875 -1.891 4.000 0
11.691 -3.115 -1.877 5.000 0
7.875 -2.168 -1.929 3.000 0
8.432 -2.291 -1.917 3.000 0
9.109 -2.445 -1.914 3.000 0
9.834 -2.608 -1.899 3.000 0
10.721 -2.811 -1.890 4.000 0
11.749 -3.046 -1.876 5.000 0
7.901 -2.116 -1.926 2.000 0
8.484 -2.243 -1.920 3.000 0
9.163 -2.392 -1.916 3.000 0
9.896 -2.552 -1.901 3.000 0
10.756 -2.741 -1.886 4.000 0
11.805 -2.975 -1.875 5.000 0
7.939 -2.067 -1.927 3.000 0
8.505 -2.185 -1.916 3.000 0
9.179 -2.328 -1.910 3.000 0
9.934 -2.488 -1.899 4.000 0
10.809 -2.676 -1.885 4.000 0
11.867 -2.903 -1.874 6.000 0
7.974 -2.016 -1.926 2.000 0
8.562 -2.135 -1.919 3.000 0
