# .PCD v.7 - Point Cloud Data file format
VERSION .7
FIELDS x y z intensity class
SIZE 4 4 4 4
TYPE F F F F
COUNT 1 1 1 1WIDTH 23995
HEIGHT 1
VIEWPOINT 0 0 0 1 0 0 0
POINTS 1647
DATA ascii
5.847 1.710 -1.216 47.000 3
6.186 1.800 -1.182 4.000 29
6.534 1.891 -1.139 2.000 29
6.893 1.986 -1.087 4.000 29
6.253 1.795 -0.883 59.000 29
6.235 1.783 -0.779 56.000 29
0.000 0.000 0.000 50.000 0
6.203 1.761 -1.181 4.000 29
6.559 1.852 -1.139 3.000 29
6.850 1.925 -1.076 4.000 29
6.234 1.745 -0.877 58.000 29
6.212 1.733 -0.773 55.000 29
5.859 1.629 -1.210 33.000 3
6.217 1.719 -1.179 4.000 29
6.564 1.806 -1.135 4.000 29
6.609 1.810 -1.034 8.000 29
6.215 1.695 -0.870 56.000 29
6.202 1.685 -0.768 58.000 29
5.896 1.597 -1.213 17.000 3
6.238 1.680 -1.179 1.000 29
6.585 1.765 -1.135 4.000 29
6.416 1.711 -1.000 11.000 29
6.195 1.646 -0.864 58.000 29
0.000 0.000 0.000 50.000 0
5.928 1.562 -1.216 11.000 3
6.256 1.639 -1.178 3.000 29
6.602 1.721 -1.134 4.000 29
6.253 1.622 -0.971 26.000 29
6.177 1.596 -0.858 59.000 29
6.168 1.587 -0.758 57.000 29
5.951 1.525 -1.217 5.000 3
6.286 1.601 -1.180 3.000 29
6.619 1.677 -1.133 4.000 29
6.199 1.563 -0.959 44.000 29
6.161 1.546 -0.853 60.000 29
6.153 1.538 -0.753 60.000 29
5.966 1.484 -1.216 5.000 3
6.292 1.556 -1.178 3.000 29
6.635 1.631 -1.132 4.000 29
0.000 0.000 0.000 50.000 0
6.153 1.499 -0.849 61.000 29
6.135 1.488 -0.748 60.000 29
5.981 1.443 -1.216 4.000 0
6.305 1.512 -1.177 3.000 29
6.651 1.586 -1.132 4.000 29
6.144 1.457 -0.945 59.000 29
6.135 1.448 -0.844 64.000 29
6.116 1.437 -0.743 67.000 29
6.000 1.402 -1.217 4.000 0
6.321 1.468 -1.177 2.000 29
6.659 1.537 -1.130 4.000 29
6.131 1.408 -0.940 62.000 29
6.118 1.398 -0.839 66.000 29
6.090 1.386 -0.738 67.000 29
6.008 1.358 -1.215 4.000 0
6.330 1.422 -1.176 3.000 29
0.000 0.000 0.000 50.000 0
6.118 1.359 -0.936 64.000 29
6.101 1.348 -0.835 63.000 29
6.072 1.335 -0.734 68.000 29
6.026 1.316 -1.216 4.000 29
6.335 1.374 -1.174 3.000 29
6.687 1.442 -1.129 4.000 29
6.100 1.308 -0.931 63.000 29
6.081 1.298 -0.830 64.000 29
6.061 1.287 -0.731 69.000 29
6.030 1.271 -1.215 3.000 29
6.360 1.331 -1.176 4.000 29
6.697 1.393 -1.128 5.000 29
6.082 1.258 -0.926 63.000 29
6.055 1.245 -0.824 66.000 29
6.041 1.236 -0.726 61.000 29
6.036 1.225 -1.213 4.000 29
6.377 1.285 -1.176 3.000 29
6.703 1.342 -1.127 4.000 29
6.065 1.207 -0.922 59.000 29
6.040 1.195 -0.821 60.000 29
0.000 0.000 0.000 50.000 0
6.048 1.180 -1.213 3.000 29
6.384 1.237 -1.176 3.000 29
6.674 1.284 -1.120 4.000 29
6.039 1.154 -0.916 58.000 29
6.025 1.145 -0.817 62.000 29
6.006 1.134 -0.719 65.000 29
6.064 1.135 -1.214 3.000 29
6.394 1.188 -1.175 3.000 29
6.475 1.195 -1.085 6.000 29
6.026 1.105 -0.912 58.000 29
6.009 1.095 -0.813 60.000 29
5.995 1.086 -0.716 67.000 29
6.078 1.090 -1.215 3.000 29
6.398 1.139 -1.174 3.000 29
6.253 1.105 -1.046 12.000 29
6.013 1.055 -0.909 60.000 29
5.991 1.045 -0.810 62.000 29
5.977 1.035 -0.713 67.000 29
6.084 1.043 -1.215 2.000 29
0.000 0.000 0.000 50.000 0
6.118 1.033 -1.022 17.000 29
5.995 1.005 -0.905 62.000 29
5.971 0.994 -0.806 63.000 29
5.959 0.985 -0.710 67.000 29
6.090 0.996 -1.214 3.000 29
6.418 1.041 -1.174 4.000 29
6.040 0.972 -1.007 37.000 29
5.972 0.954 -0.900 61.000 29
5.960 0.945 -0.803 65.000 29
5.942 0.936 -0.707 68.000 29
6.107 0.950 -1.216 3.000 29
6.432 0.992 -1.175 4.000 29
5.994 0.917 -0.998 47.000 29
5.956 0.904 -0.896 64.000 29
0.000 0.000 0.000 50.000 0
5.924 0.886 -0.704 69.000 29
6.122 0.904 -1.217 3.000 29
6.434 0.941 -1.174 5.000 29
5.959 0.863 -0.991 51.000 29
5.936 0.853 -0.892 68.000 29
5.919 0.843 -0.795 68.000 29
5.907 0.835 -0.701 69.000 29
6.126 0.855 -1.217 3.000 29
6.444 0.891 -1.175 4.000 29
5.941 0.813 -0.987 58.000 29
5.919 0.803 -0.889 70.000 29
5.904 0.794 -0.793 91.000 29
5.892 0.786 -0.699 68.000 29
6.132 0.806 -1.217 4.000 29
6.455 0.840 -1.175 4.000 29
5.918 0.762 -0.982 57.000 29
5.902 0.753 -0.885 66.000 29
5.847 0.739 -0.784 158.000 29
0.000 0.000 0.000 50.000 0
6.150 0.758 -1.219 4.000 29
6.462 0.788 -1.176 5.000 29
5.935 0.717 -0.984 7.000 29
5.894 0.704 -0.883 63.000 29
5.834 0.690 -0.782 156.000 29
5.858 0.686 -0.693 68.000 29
6.149 0.709 -1.218 3.000 29
6.468 0.737 -1.176 4.000 29
5.888 0.663 -0.975 56.000 29
5.873 0.654 -0.879 61.000 29
5.854 0.645 -0.784 65.000 29
5.841 0.637 -0.691 66.000 29
6.159 0.659 -1.219 4.000 29
6.471 0.684 -1.175 5.000 29
5.869 0.613 -0.971 54.000 29
5.869 0.606 -0.878 13.000 29
5.827 0.594 -0.780 53.000 29
5.814 0.586 -0.687 56.000 29
6.167 0.610 -1.219 3.000 29
6.475 0.632 -1.175 5.000 29
5.837 0.562 -0.966 57.000 29
0.000 0.000 0.000 50.000 0
5.845 0.548 -0.781 23.000 29
5.848 0.541 -0.690 17.000 29
6.162 0.559 -1.217 4.000 29
6.482 0.579 -1.176 5.000 29
6.012 0.530 -0.994 7.000 29
5.999 0.521 -0.896 14.000 29
6.024 0.516 -0.805 10.000 29
6.031 0.509 -0.712 11.000 29
6.173 0.509 -1.219 4.000 29
6.489 0.527 -1.176 5.000 29
6.166 0.493 -1.019 16.000 29
5.858 0.460 -0.874 9.000 29
5.808 0.449 -0.775 7.000 29
5.919 0.451 -0.698 12.000 29
6.181 0.459 -1.219 4.000 29
6.492 0.474 -1.176 4.000 29
5.815 0.417 -0.960 3.000 29
5.791 0.408 -0.864 6.000 29
5.781 0.400 -0.771 5.000 29
0.000 0.000 0.000 50.000 0
6.185 0.409 -1.219 4.000 29
5.815 0.377 -1.052 4.000 29
5.786 0.367 -0.954 7.000 29
5.799 0.361 -0.865 10.000 29
5.792 0.353 -0.772 11.000 29
5.746 0.343 -0.677 13.000 29
5.909 0.342 -1.164 5.000 29
5.787 0.327 -1.047 4.000 29
5.806 0.320 -0.957 10.000 29
5.803 0.313 -0.865 9.000 29
5.757 0.303 -0.767 14.000 29
5.781 0.297 -0.680 10.000 29
5.791 0.287 -1.140 4.000 29
5.792 0.279 -1.047 9.000 29
5.765 0.270 -0.950 33.000 29
5.810 0.265 -0.865 16.000 29
5.792 0.256 -0.771 20.000 29
0.000 0.000 0.000 50.000 0
5.771 0.237 -1.136 8.000 29
5.760 0.229 -1.041 12.000 29
5.804 0.223 -0.956 38.000 29
5.872 0.218 -0.874 12.000 29
5.935 0.213 -0.790 16.000 29
5.799 0.200 -0.682 14.000 29
5.788 0.190 -1.139 10.000 29
5.781 0.182 -1.044 18.000 29
5.863 0.176 -0.965 14.000 29
5.987 0.172 -0.891 35.000 29
5.967 0.164 -0.794 24.000 29
6.045 0.159 -0.710 18.000 29
5.777 0.141 -1.136 10.000 29
5.791 0.134 -1.045 26.000 29
6.044 0.131 -0.994 15.000 29
5.904 0.120 -0.878 17.000 29
5.800 0.111 -0.771 12.000 29
5.955 0.106 -0.699 29.000 29
5.730 0.092 -1.126 12.000 29
5.820 0.085 -1.050 14.000 29
6.046 0.080 -0.994 16.000 29
0.000 0.000 0.000 50.000 0
5.765 0.062 -0.766 12.000 29
5.917 0.055 -0.694 16.000 29
5.723 0.043 -1.124 14.000 29
5.888 0.037 -1.062 15.000 29
5.899 0.029 -0.969 17.000 29
5.765 0.021 -0.856 13.000 29
5.744 0.012 -0.763 15.000 29
5.841 0.005 -0.685 12.000 29
5.706 -0.004 -1.120 14.000 29
5.982 -0.013 -1.078 14.000 29
5.815 -0.020 -0.955 16.000 29
5.740 -0.028 -0.852 13.000 29
5.729 -0.035 -0.760 12.000 29
5.837 -0.044 -0.684 9.000 29
0.000 0.000 0.000 50.000 0
5.900 -0.062 -1.063 19.000 29
5.845 -0.069 -0.959 16.000 29
5.728 -0.076 -0.849 12.000 29
5.736 -0.084 -0.760 11.000 29
5.858 -0.094 -0.685 12.000 29
5.666 -0.101 -1.111 11.000 29
5.855 -0.112 -1.054 16.000 29
5.923 -0.121 -0.971 29.000 29
5.732 -0.124 -0.849 11.000 29
5.767 -0.133 -0.764 11.000 29
5.866 -0.144 -0.686 51.000 29
5.675 -0.149 -1.113 9.000 29
0.000 0.000 0.000 50.000 0
5.900 -0.170 -0.967 22.000 29
5.886 -0.178 -0.871 29.000 29
5.860 -0.186 -0.776 44.000 29
5.569 -0.184 -0.650 20.000 29
5.607 -0.195 -1.099 10.000 29
5.624 -0.203 -1.011 11.000 29
5.746 -0.215 -0.941 12.000 29
5.869 -0.229 -0.868 32.000 29
5.563 -0.224 -0.736 18.000 29
5.576 -0.233 -0.650 9.000 29
5.607 -0.243 -1.098 7.000 29
5.608 -0.251 -1.008 9.000 29
5.606 -0.258 -0.918 9.000 29
5.616 -0.267 -0.830 9.000 29
0.000 0.000 0.000 50.000 0
5.539 -0.279 -0.645 5.000 29
5.597 -0.291 -1.095 3.000 29
5.579 -0.297 -1.002 4.000 29
5.581 -0.305 -0.913 9.000 29
5.582 -0.313 -0.824 9.000 29
5.536 -0.318 -0.731 5.000 29
5.532 -0.326 -0.644 4.000 29
5.614 -0.340 -1.098 3.000 29
5.570 -0.345 -0.999 3.000 29
5.544 -0.351 -0.906 6.000 29
5.544 -0.359 -0.818 7.000 29
5.527 -0.365 -0.729 4.000 29
0.000 0.000 0.000 50.000 0
6.274 -0.434 -1.226 5.000 29
5.594 -0.394 -1.003 0.000 29
5.542 -0.398 -0.905 5.000 29
5.533 -0.405 -0.816 2.000 29
5.583 -0.417 -0.735 0.000 29
5.676 -0.432 -0.659 1.000 29
6.267 -0.487 -1.224 5.000 29
6.540 -0.517 -1.172 5.000 29
5.780 -0.465 -0.943 1.000 29
5.683 -0.466 -0.837 0.000 29
5.831 -0.487 -0.767 12.000 29
5.590 -0.475 -0.648 7.000 29
6.275 -0.542 -1.225 5.000 29
5.508 -0.483 -0.986 38.000 29
5.482 -0.489 -0.893 46.000 29
0.000 0.000 0.000 50.000 0
5.449 -0.501 -0.716 80.000 29
5.442 -0.509 -0.630 48.000 29
5.829 -0.554 -1.137 9.000 29
5.548 -0.535 -0.992 9.000 29
5.509 -0.539 -0.897 8.000 29
5.453 -0.541 -0.801 65.000 29
5.449 -0.549 -0.715 60.000 29
5.430 -0.556 -0.627 62.000 29
5.802 -0.602 -1.131 12.000 29
5.472 -0.575 -0.978 53.000 29
5.460 -0.582 -0.888 61.000 29
5.448 -0.588 -0.799 58.000 29
5.433 -0.595 -0.711 57.000 29
5.413 -0.602 -0.624 59.000 29
5.591 -0.629 -1.089 23.000 29
5.450 -0.621 -0.973 48.000 29
5.443 -0.628 -0.885 50.000 29
0.000 0.000 0.000 50.000 0
5.419 -0.642 -0.708 52.000 29
5.398 -0.648 -0.621 60.000 29
5.536 -0.671 -1.078 29.000 29
5.438 -0.667 -0.970 47.000 29
5.443 -0.675 -0.884 151.000 29
5.416 -0.680 -0.793 56.000 29
5.402 -0.687 -0.705 53.000 29
5.387 -0.694 -0.618 62.000 29
5.475 -0.713 -1.065 36.000 29
5.421 -0.713 -0.966 53.000 29
5.409 -0.719 -0.877 54.000 29
5.400 -0.726 -0.789 51.000 29
5.385 -0.733 -0.702 53.000 29
5.367 -0.739 -0.615 61.000 29
5.433 -0.755 -1.056 40.000 29
5.412 -0.760 -0.964 49.000 29
0.000 0.000 0.000 50.000 0
5.386 -0.772 -0.786 50.000 29
5.366 -0.777 -0.698 52.000 29
5.352 -0.784 -0.612 58.000 29
5.407 -0.799 -1.050 43.000 29
5.392 -0.804 -0.959 48.000 29
5.385 -0.811 -0.871 51.000 29
5.368 -0.816 -0.782 50.000 29
5.349 -0.823 -0.695 56.000 29
5.335 -0.829 -0.609 61.000 29
5.396 -0.845 -1.047 47.000 29
5.380 -0.850 -0.956 35.000 29
5.366 -0.855 -0.867 31.000 29
0.000 0.000 0.000 50.000 0
5.326 -0.866 -0.690 53.000 29
5.324 -0.875 -0.606 63.000 29
5.376 -0.889 -1.043 43.000 29
5.361 -0.895 -0.952 46.000 29
5.353 -0.901 -0.864 51.000 29
5.341 -0.907 -0.776 50.000 29
5.314 -0.911 -0.687 58.000 29
5.311 -0.920 -0.603 62.000 29
5.360 -0.935 -1.039 48.000 29
5.347 -0.940 -0.948 51.000 29
5.330 -0.945 -0.859 49.000 29
5.320 -0.951 -0.772 52.000 29
5.303 -0.957 -0.684 59.000 29
5.297 -0.965 -0.600 60.000 29
5.347 -0.980 -1.035 46.000 29
0.000 0.000 0.000 50.000 0
5.318 -0.990 -0.856 51.000 29
5.311 -0.997 -0.769 54.000 29
5.287 -1.002 -0.681 55.000 29
5.273 -1.009 -0.595 61.000 29
5.332 -1.025 -1.031 47.000 29
5.318 -1.030 -0.941 50.000 29
5.303 -1.035 -0.852 48.000 29
5.285 -1.040 -0.764 51.000 29
5.271 -1.046 -0.677 55.000 29
5.259 -1.053 -0.592 63.000 29
5.317 -1.070 -1.028 46.000 29
5.301 -1.074 -0.937 49.000 29
5.282 -1.078 -0.848 54.000 29
0.000 0.000 0.000 50.000 0
5.254 -1.090 -0.674 54.000 29
5.246 -1.098 -0.589 63.000 29
5.301 -1.114 -1.023 48.000 29
5.286 -1.119 -0.934 47.000 29
5.271 -1.124 -0.845 53.000 29
5.261 -1.130 -0.758 53.000 29
5.242 -1.135 -0.671 55.000 29
5.229 -1.142 -0.586 62.000 29
5.280 -1.157 -1.018 47.000 29
5.269 -1.163 -0.929 48.000 29
5.256 -1.168 -0.841 50.000 29
5.247 -1.175 -0.754 53.000 29
5.226 -1.179 -0.667 58.000 29
5.215 -1.186 -0.582 64.000 29
5.266 -1.202 -1.015 47.000 29
5.256 -1.208 -0.926 49.000 29
0.000 0.000 0.000 50.000 0
5.224 -1.217 -0.750 55.000 29
5.213 -1.224 -0.664 58.000 29
5.198 -1.230 -0.579 62.000 29
5.249 -1.246 -1.011 46.000 29
5.241 -1.252 -0.922 50.000 29
5.223 -1.256 -0.833 52.000 29
5.209 -1.261 -0.746 54.000 29
5.195 -1.268 -0.660 58.000 29
5.182 -1.274 -0.575 61.000 29
5.237 -1.291 -1.008 46.000 29
5.229 -1.297 -0.919 49.000 29
0.000 0.000 0.000 50.000 0
5.197 -1.306 -0.743 51.000 29
5.184 -1.312 -0.657 58.000 29
5.169 -1.318 -0.572 63.000 29
5.225 -1.336 -1.004 47.000 29
5.210 -1.340 -0.915 49.000 29
5.193 -1.344 -0.826 65.000 29
5.185 -1.350 -0.740 60.000 29
5.164 -1.354 -0.653 67.000 29
5.156 -1.362 -0.569 86.000 29
5.206 -1.379 -1.000 59.000 29
5.194 -1.383 -0.911 58.000 29
0.000 0.000 0.000 50.000 0
5.168 -1.394 -0.736 60.000 29
5.151 -1.398 -0.650 68.000 29
5.141 -1.406 -0.565 85.000 29
5.194 -1.424 -0.997 60.000 29
5.177 -1.427 -0.907 57.000 29
5.165 -1.432 -0.819 68.000 29
5.154 -1.437 -0.733 56.000 29
5.137 -1.442 -0.646 62.000 29
5.124 -1.449 -0.562 83.000 29
5.178 -1.467 -0.993 60.000 29
5.164 -1.471 -0.904 58.000 29
5.146 -1.474 -0.815 68.000 29
5.132 -1.479 -0.728 58.000 29
0.000 0.000 0.000 50.000 0
5.110 -1.492 -0.558 76.000 29
5.162 -1.511 -0.989 60.000 29
5.150 -1.515 -0.900 58.000 29
5.135 -1.519 -0.812 69.000 29
5.126 -1.526 -0.726 64.000 29
5.112 -1.531 -0.640 62.000 29
5.088 -1.534 -0.554 74.000 29
5.149 -1.555 -0.986 61.000 29
5.130 -1.557 -0.896 59.000 29
5.117 -1.561 -0.808 69.000 29
5.106 -1.567 -0.722 64.000 29
5.093 -1.573 -0.636 67.000 29
5.079 -1.579 -0.551 82.000 29
5.114 -1.640 -0.978 61.000 29
5.105 -1.644 -0.890 62.000 29
5.087 -1.647 -0.801 71.000 29
5.077 -1.653 -0.715 66.000 29
5.058 -1.657 -0.629 71.000 29
5.049 -1.665 -0.545 84.000 29
0.000 0.000 0.000 50.000 0
5.091 -1.688 -0.887 63.000 29
5.078 -1.692 -0.799 71.000 29
5.062 -1.696 -0.712 64.000 29
5.044 -1.700 -0.626 66.000 29
5.034 -1.707 -0.542 82.000 29
5.093 -1.728 -0.973 57.000 29
5.072 -1.729 -0.883 61.000 29
5.063 -1.735 -0.796 69.000 29
5.050 -1.740 -0.709 64.000 29
5.030 -1.743 -0.623 65.000 29
5.022 -1.751 -0.539 83.000 29
5.073 -1.770 -0.969 56.000 29
0.000 0.000 0.000 50.000 0
5.044 -1.775 -0.792 68.000 29
5.033 -1.781 -0.706 65.000 29
5.022 -1.787 -0.620 66.000 29
5.005 -1.792 -0.535 84.000 29
5.066 -1.815 -0.967 56.000 29
5.046 -1.816 -0.877 58.000 29
5.032 -1.819 -0.789 69.000 29
5.018 -1.824 -0.703 63.000 29
5.005 -1.829 -0.617 64.000 29
0.000 0.000 0.000 50.000 0
5.049 -1.857 -0.964 56.000 29
5.031 -1.859 -0.874 60.000 29
5.018 -1.862 -0.787 65.000 29
5.001 -1.865 -0.699 59.000 29
4.990 -1.871 -0.614 65.000 29
4.976 -1.878 -0.529 76.000 29
5.035 -1.901 -0.961 56.000 29
5.015 -1.901 -0.871 58.000 29
5.000 -1.904 -0.783 66.000 29
4.991 -1.910 -0.697 60.000 29
4.979 -1.915 -0.611 62.000 29
4.965 -1.922 -0.527 80.000 29
5.009 -1.939 -0.956 56.000 29
0.000 0.000 0.000 50.000 0
4.986 -1.946 -0.780 65.000 29
4.974 -1.951 -0.694 59.000 29
4.963 -1.957 -0.608 61.000 29
4.949 -1.962 -0.524 76.000 29
5.004 -1.985 -0.955 56.000 29
4.991 -1.987 -0.866 55.000 29
4.970 -1.988 -0.777 68.000 29
4.962 -1.994 -0.691 59.000 29
4.949 -1.999 -0.606 60.000 29
0.000 0.000 0.000 50.000 0
4.992 -2.028 -0.953 58.000 29
4.975 -2.029 -0.863 55.000 29
4.954 -2.029 -0.775 66.000 29
4.952 -2.037 -0.689 58.000 29
4.940 -2.042 -0.604 60.000 29
4.922 -2.046 -0.519 77.000 29
4.974 -2.069 -0.950 55.000 29
4.965 -2.072 -0.862 56.000 29
4.946 -2.073 -0.773 67.000 29
4.936 -2.078 -0.687 58.000 29
0.000 0.000 0.000 50.000 0
4.907 -2.087 -0.516 75.000 29
4.961 -2.111 -0.948 56.000 29
4.944 -2.110 -0.858 55.000 29
4.934 -2.115 -0.771 59.000 29
4.922 -2.119 -0.684 68.000 29
4.907 -2.123 -0.599 74.000 29
4.892 -2.128 -0.513 89.000 29
4.945 -2.151 -0.945 71.000 29
4.934 -2.153 -0.857 69.000 29
4.919 -2.155 -0.769 71.000 29
4.910 -2.161 -0.683 68.000 29
4.892 -2.164 -0.596 72.000 29
4.883 -2.171 -0.512 96.000 29
4.930 -2.192 -0.943 71.000 29
4.918 -2.194 -0.854 67.000 29
0.000 0.000 0.000 50.000 0
4.893 -2.201 -0.680 68.000 29
4.880 -2.206 -0.594 73.000 29
4.865 -2.211 -0.509 92.000 29
4.914 -2.233 -0.941 71.000 29
4.904 -2.235 -0.853 69.000 29
4.886 -2.235 -0.764 70.000 29
4.881 -2.242 -0.678 64.000 29
4.863 -2.244 -0.592 70.000 29
4.848 -2.249 -0.507 88.000 29
4.900 -2.273 -0.939 69.000 29
4.889 -2.275 -0.851 68.000 29
4.876 -2.277 -0.763 69.000 29
4.865 -2.282 -0.676 65.000 29
4.853 -2.287 -0.591 73.000 29
4.840 -2.292 -0.506 82.000 29
4.891 -2.317 -0.939 67.000 29
0.000 0.000 0.000 50.000 0
4.867 -2.320 -0.762 70.000 29
4.849 -2.321 -0.674 65.000 29
4.837 -2.326 -0.589 72.000 29
4.826 -2.332 -0.504 89.000 29
4.870 -2.353 -0.936 66.000 29
4.865 -2.358 -0.849 62.000 29
4.851 -2.359 -0.760 63.000 29
4.836 -2.361 -0.673 67.000 29
4.825 -2.366 -0.587 71.000 29
4.813 -2.372 -0.503 88.000 29
0.000 0.000 0.000 50.000 0
4.850 -2.397 -0.847 62.000 29
4.841 -2.400 -0.760 61.000 29
4.826 -2.402 -0.672 66.000 29
4.810 -2.405 -0.586 69.000 29
4.802 -2.413 -0.501 83.000 29
4.852 -2.438 -0.936 58.000 29
4.838 -2.438 -0.847 56.000 29
4.838 -2.445 -0.760 41.000 29
4.826 -2.448 -0.673 47.000 29
4.814 -2.452 -0.587 49.000 29
4.809 -2.462 -0.502 32.000 29
4.816 -2.466 -0.931 176.000 29
0.000 0.000 0.000 50.000 0
4.824 -2.484 -0.760 41.000 29
4.809 -2.485 -0.672 47.000 29
4.802 -2.493 -0.586 42.000 29
4.796 -2.501 -0.502 15.000 29
4.818 -2.513 -0.933 152.000 29
4.817 -2.518 -0.846 50.000 29
4.813 -2.524 -0.759 40.000 29
4.798 -2.525 -0.671 49.000 29
4.787 -2.529 -0.585 41.000 29
4.774 -2.534 -0.500 53.000 29
4.807 -2.552 -0.933 200.000 29
4.800 -2.555 -0.845 47.000 29
4.793 -2.558 -0.758 43.000 29
4.780 -2.560 -0.670 47.000 29
4.773 -2.566 -0.584 44.000 29
4.771 -2.577 -0.500 28.000 29
4.800 -2.594 -0.934 65.000 29
4.790 -2.595 -0.846 48.000 29
4.784 -2.599 -0.758 44.000 29
0.000 0.000 0.000 50.000 0
4.758 -2.603 -0.584 49.000 29
4.746 -2.608 -0.498 49.000 29
4.789 -2.633 -0.935 35.000 29
4.778 -2.633 -0.846 46.000 29
4.768 -2.634 -0.757 42.000 29
4.758 -2.637 -0.670 47.000 29
4.743 -2.639 -0.583 45.000 29
4.729 -2.643 -0.498 50.000 29
4.772 -2.668 -0.934 62.000 29
4.762 -2.668 -0.845 61.000 29
4.750 -2.668 -0.757 53.000 29
4.741 -2.672 -0.670 62.000 29
4.721 -2.670 -0.582 64.000 29
4.714 -2.677 -0.498 75.000 29
4.757 -2.704 -0.935 62.000 29
4.749 -2.704 -0.846 59.000 29
4.736 -2.703 -0.757 53.000 29
0.000 0.000 0.000 50.000 0
4.707 -2.704 -0.582 66.000 29
4.702 -2.713 -0.498 79.000 29
4.744 -2.740 -0.935 66.000 29
4.735 -2.739 -0.846 62.000 29
4.723 -2.739 -0.757 54.000 29
4.712 -2.741 -0.670 63.000 29
4.695 -2.740 -0.583 64.000 29
4.688 -2.747 -0.498 75.000 29
4.730 -2.775 -0.936 65.000 29
4.722 -2.775 -0.847 58.000 29
4.711 -2.775 -0.758 53.000 29
4.696 -2.773 -0.670 55.000 29
4.682 -2.774 -0.583 66.000 29
4.675 -2.781 -0.498 75.000 29
4.725 -2.815 -0.938 53.000 29
4.717 -2.815 -0.849 38.000 29
4.697 -2.809 -0.759 42.000 29
0.000 0.000 0.000 50.000 0
4.673 -2.810 -0.585 71.000 29
4.663 -2.815 -0.499 80.000 29
4.718 -2.853 -0.941 67.000 29
4.704 -2.848 -0.850 64.000 29
4.694 -2.848 -0.762 54.000 29
4.684 -2.849 -0.674 61.000 29
4.663 -2.844 -0.586 63.000 29
4.657 -2.851 -0.501 68.000 29
4.744 -2.910 -0.950 17.000 29
4.784 -2.938 -0.868 14.000 29
4.718 -2.903 -0.769 16.000 29
4.724 -2.913 -0.682 7.000 29
4.703 -2.909 -0.594 1.000 29
4.719 -2.929 -0.510 0.000 29
6.476 -4.029 -1.303 2.000 0
6.886 -4.288 -1.256 1.000 0
0.000 0.000 0.000 50.000 0
7.844 -4.904 -1.139 4.000 0
8.426 -5.283 -1.069 4.000 0
9.108 -5.729 -0.989 4.000 0
6.461 -4.075 -1.306 2.000 0
6.886 -4.347 -1.262 2.000 0
7.342 -4.642 -1.208 32.000 0
7.826 -4.958 -1.142 3.000 0
8.407 -5.340 -1.072 4.000 0
9.074 -5.782 -0.991 4.000 0
6.452 -4.123 -1.310 2.000 0
6.847 -4.378 -1.260 2.000 0
7.334 -4.696 -1.213 30.000 3
7.808 -5.009 -1.146 3.000 0
8.393 -5.398 -1.076 5.000 0
9.052 -5.840 -0.995 5.000 0
6.431 -4.162 -1.312 2.000 0
6.846 -4.433 -1.267 2.000 0
0.000 0.000 0.000 50.000 0
7.789 -5.059 -1.149 4.000 0
8.382 -5.457 -1.081 5.000 0
9.054 -5.911 -1.001 5.000 0
6.414 -4.202 -1.315 2.000 0
6.826 -4.474 -1.269 2.000 0
7.291 -4.784 -1.218 24.000 3
7.764 -5.103 -1.152 3.000 0
8.372 -5.514 -1.086 4.000 0
9.016 -5.956 -1.003 4.000 0
6.395 -4.240 -1.318 2.000 0
6.803 -4.512 -1.272 2.000 0
7.272 -4.827 -1.222 28.000 3
7.751 -5.152 -1.156 3.000 0
8.327 -5.546 -1.087 4.000 0
9.007 -6.015 -1.009 5.000 0
6.384 -4.281 -1.322 2.000 0
0.000 0.000 0.000 50.000 0
7.255 -4.869 -1.226 22.000 3
7.727 -5.192 -1.160 3.000 0
8.327 -5.607 -1.094 4.000 0
8.987 -6.065 -1.014 5.000 0
6.365 -4.316 -1.326 2.000 0
6.758 -4.582 -1.278 2.000 0
7.241 -4.912 -1.230 23.000 3
7.710 -5.236 -1.165 3.000 0
8.305 -5.649 -1.099 3.000 0
8.958 -6.107 -1.018 4.000 0
6.350 -4.351 -1.330 2.000 0
6.751 -4.625 -1.284 2.000 0
7.222 -4.949 -1.235 15.000 3
7.694 -5.277 -1.170 3.000 0
8.263 -5.675 -1.100 3.000 0
8.921 -6.141 -1.021 4.000 0
6.335 -4.385 -1.335 2.000 0
6.714 -4.644 -1.284 2.000 0
7.197 -4.979 -1.238 15.000 3
7.665 -5.307 -1.173 3.000 0
0.000 0.000 0.000 50.000 0
8.905 -6.186 -1.027 5.000 0
6.310 -4.409 -1.337 2.000 0
6.704 -4.681 -1.290 2.000 0
7.177 -5.010 -1.242 14.000 3
7.646 -5.340 -1.177 3.000 0
8.218 -5.747 -1.109 4.000 0
8.859 -6.206 -1.030 4.000 0
6.298 -4.440 -1.342 2.000 0
6.669 -4.697 -1.291 2.000 0
7.157 -5.040 -1.246 14.000 3
7.611 -5.361 -1.179 3.000 0
8.194 -5.777 -1.114 4.000 0
0.000 0.000 0.000 50.000 0
6.274 -4.461 -1.344 2.000 0
6.659 -4.729 -1.296 2.000 0
7.136 -5.066 -1.250 9.000 3
7.589 -5.388 -1.183 3.000 0
8.177 -5.809 -1.119 5.000 0
8.805 -6.264 -1.039 5.000 0
6.247 -4.477 -1.346 2.000 0
6.622 -4.740 -1.296 2.000 0
7.098 -5.077 -1.252 4.000 3
7.557 -5.405 -1.187 4.000 0
8.150 -5.832 -1.124 4.000 0
8.770 -6.283 -1.043 5.000 0
6.234 -4.502 -1.351 2.000 0
6.608 -4.765 -1.301 1.000 0
7.060 -5.085 -1.252 4.000 0
0.000 0.000 0.000 50.000 0
8.115 -5.846 -1.127 4.000 0
8.732 -6.296 -1.047 5.000 0
6.211 -4.517 -1.354 2.000 0
6.579 -4.775 -1.303 1.000 0
7.033 -5.099 -1.255 4.000 0
7.504 -5.438 -1.194 3.000 0
8.093 -5.866 -1.132 4.000 0
8.706 -6.315 -1.052 6.000 0
6.186 -4.528 -1.356 2.000 0
6.558 -4.790 -1.307 1.000 0
6.994 -5.101 -1.256 3.000 0
7.482 -5.453 -1.198 4.000 0
8.060 -5.874 -1.136 4.000 0
8.674 -6.325 -1.057 6.000 0
0.000 0.000 0.000 50.000 0
6.555 -4.815 -1.314 1.000 0
6.965 -5.109 -1.259 3.000 0
7.454 -5.461 -1.202 3.000 0
8.034 -5.884 -1.140 4.000 0
8.659 -6.344 -1.063 6.000 0
6.147 -4.550 -1.362 3.000 0
6.531 -4.822 -1.316 1.000 0
6.947 -5.120 -1.263 3.000 0
7.424 -5.465 -1.204 3.000 0
8.001 -5.886 -1.143 4.000 0
8.617 -6.340 -1.066 5.000 0
6.119 -4.550 -1.363 3.000 0
6.497 -4.819 -1.317 1.000 0
6.928 -5.127 -1.266 3.000 0
7.396 -5.467 -1.207 4.000 0
0.000 0.000 0.000 50.000 0
8.600 -6.351 -1.072 5.000 0
6.098 -4.554 -1.365 2.000 0
6.472 -4.819 -1.318 1.000 0
6.899 -5.126 -1.269 3.000 0
7.375 -5.470 -1.211 3.000 0
7.949 -5.890 -1.151 4.000 0
8.569 -6.347 -1.076 4.000 0
6.077 -4.555 -1.367 2.000 0
6.457 -4.824 -1.322 1.000 0
6.878 -5.126 -1.272 3.000 0
7.337 -5.458 -1.212 4.000 3
7.925 -5.888 -1.155 4.000 0
8.519 -6.325 -1.078 6.000 0
0.000 0.000 0.000 50.000 0
6.446 -4.830 -1.327 2.000 0
6.857 -5.124 -1.274 3.000 0
7.294 -5.439 -1.212 5.000 3
7.880 -5.867 -1.155 4.000 0
8.510 -6.331 -1.083 5.000 0
6.034 -4.548 -1.370 2.000 0
6.436 -4.833 -1.331 2.000 0
6.841 -5.122 -1.278 3.000 0
7.258 -5.421 -1.212 5.000 3
7.859 -5.860 -1.159 4.000 0
8.468 -6.307 -1.085 5.000 0
6.015 -4.542 -1.372 2.000 0
6.424 -4.832 -1.334 3.000 0
6.826 -5.118 -1.281 3.000 0
0.000 0.000 0.000 50.000 0
7.840 -5.851 -1.162 4.000 0
8.444 -6.294 -1.089 6.000 0
5.994 -4.531 -1.373 3.000 0
6.408 -4.825 -1.337 3.000 0
6.802 -5.104 -1.282 3.000 0
7.211 -5.395 -1.217 14.000 3
7.814 -5.834 -1.165 3.000 0
8.433 -6.286 -1.094 6.000 0
5.968 -4.515 -1.372 3.000 0
6.382 -4.807 -1.337 3.000 0
6.792 -5.097 -1.286 3.000 0
7.188 -5.378 -1.218 17.000 3
7.795 -5.818 -1.168 4.000 0
8.405 -6.263 -1.096 5.000 0
0.000 0.000 0.000 50.000 0
6.374 -4.800 -1.340 3.000 0
6.772 -5.080 -1.287 3.000 0
7.183 -5.371 -1.222 20.000 3
7.759 -5.786 -1.168 4.000 0
8.371 -6.231 -1.097 5.000 0
5.946 -4.496 -1.376 3.000 0
6.356 -4.783 -1.341 3.000 0
6.754 -5.062 -1.289 3.000 0
7.165 -5.351 -1.224 23.000 3
7.763 -5.781 -1.173 4.000 0
8.357 -6.210 -1.101 4.000 0
5.932 -4.481 -1.377 2.000 0
6.337 -4.763 -1.341 2.000 0
6.756 -5.055 -1.293 3.000 0
7.178 -5.351 -1.231 28.000 3
0.000 0.000 0.000 50.000 0
8.342 -6.185 -1.104 5.000 0
5.921 -4.465 -1.378 2.000 0
6.328 -4.746 -1.343 2.000 0
6.742 -5.034 -1.294 3.000 0
7.171 -5.333 -1.233 38.000 3
7.716 -5.720 -1.175 5.000 0
8.319 -6.151 -1.105 5.000 0
5.913 -4.448 -1.379 3.000 0
6.331 -4.736 -1.346 3.000 0
6.736 -5.016 -1.296 2.000 0
7.165 -5.313 -1.236 37.000 3
7.703 -5.692 -1.177 4.000 0
8.302 -6.117 -1.107 5.000 0
5.902 -4.427 -1.379 3.000 0
6.315 -4.710 -1.346 3.000 0
0.000 0.000 0.000 50.000 0
7.167 -5.296 -1.239 38.000 3
7.687 -5.660 -1.178 5.000 0
8.290 -6.085 -1.109 5.000 0
5.891 -4.404 -1.379 3.000 0
6.303 -4.684 -1.346 3.000 0
6.718 -4.966 -1.298 2.000 0
7.167 -5.274 -1.242 38.000 3
7.673 -5.625 -1.178 4.000 0
8.270 -6.043 -1.109 4.000 0
5.900 -4.393 -1.383 2.000 0
6.295 -4.658 -1.346 2.000 0
6.715 -4.942 -1.299 1.000 0
7.170 -5.252 -1.244 31.000 3
0.000 0.000 0.000 50.000 0
8.265 -6.009 -1.111 4.000 0
5.880 -4.358 -1.379 2.000 0
6.297 -4.637 -1.347 2.000 0
6.716 -4.918 -1.301 2.000 0
7.167 -5.223 -1.245 30.000 3
7.654 -5.554 -1.179 3.000 0
8.246 -5.962 -1.110 4.000 0
5.869 -4.327 -1.377 2.000 0
6.293 -4.610 -1.347 3.000 0
6.692 -4.874 -1.298 1.000 0
7.162 -5.189 -1.245 27.000 3
7.657 -5.524 -1.181 4.000 0
8.225 -5.910 -1.109 5.000 0
5.872 -4.305 -1.378 2.000 0
0.000 0.000 0.000 50.000 0
6.685 -4.839 -1.296 1.000 0
7.157 -5.153 -1.246 18.000 3
7.642 -5.477 -1.179 4.000 0
8.231 -5.876 -1.110 5.000 0
5.873 -4.278 -1.379 2.000 0
6.285 -4.547 -1.346 2.000 0
6.667 -4.794 -1.293 1.000 0
7.165 -5.124 -1.246 19.000 3
7.637 -5.435 -1.178 4.000 0
8.224 -5.828 -1.110 3.000 0
5.864 -4.242 -1.375 2.000 0
6.288 -4.517 -1.346 3.000 0
0.000 0.000 0.000 50.000 0
7.171 -5.091 -1.247 17.000 3
7.647 -5.401 -1.180 3.000 0
8.224 -5.784 -1.109 5.000 0
5.860 -4.208 -1.373 2.000 0
6.288 -4.483 -1.345 3.000 0
6.686 -4.736 -1.295 2.000 0
7.169 -5.049 -1.246 17.000 3
7.640 -5.353 -1.178 3.000 0
8.227 -5.738 -1.109 3.000 0
5.874 -4.185 -1.375 2.000 0
6.297 -4.453 -1.345 3.000 0
6.675 -4.689 -1.291 3.000 0
7.172 -5.009 -1.245 15.000 3
7.643 -5.310 -1.177 4.000 0
8.218 -5.682 -1.107 4.000 0
5.873 -4.149 -1.372 2.000 0
6.287 -4.409 -1.341 3.000 0
6.688 -4.657 -1.291 2.000 0
7.176 -4.967 -1.243 13.000 3
0.000 0.000 0.000 50.000 0
8.236 -5.643 -1.107 4.000 0
5.873 -4.111 -1.369 2.000 0
6.306 -4.381 -1.341 2.000 0
6.693 -4.618 -1.289 2.000 0
7.183 -4.925 -1.242 12.000 3
7.643 -5.211 -1.172 3.000 0
8.240 -5.591 -1.106 5.000 0
5.891 -4.085 -1.370 2.000 0
6.313 -4.344 -1.340 3.000 0
6.685 -4.568 -1.285 3.000 0
7.172 -4.869 -1.237 9.000 3
7.655 -5.168 -1.171 3.000 0
8.241 -5.535 -1.103 4.000 0
5.893 -4.046 -1.367 3.000 0
6.316 -4.302 -1.337 2.000 0
6.686 -4.522 -1.282 2.000 0
7.182 -4.826 -1.235 6.000 0
7.671 -5.125 -1.170 4.000 0
0.000 0.000 0.000 50.000 0
5.905 -4.012 -1.366 2.000 0
6.321 -4.261 -1.334 3.000 0
6.713 -4.493 -1.283 3.000 0
7.177 -4.771 -1.230 9.000 0
7.669 -5.067 -1.166 4.000 0
8.256 -5.427 -1.098 4.000 0
5.908 -3.970 -1.362 2.000 0
6.338 -4.226 -1.333 2.000 0
6.721 -4.448 -1.280 2.000 0
7.200 -4.733 -1.230 5.000 0
7.681 -5.019 -1.163 4.000 0
8.275 -5.377 -1.096 4.000 0
5.920 -3.934 -1.360 2.000 0
6.345 -4.182 -1.330 3.000 0
6.730 -4.403 -1.277 2.000 0
7.203 -4.680 -1.226 5.000 0
7.693 -4.968 -1.161 3.000 0
8.276 -5.314 -1.091 3.000 0
5.934 -3.897 -1.358 2.000 0
0.000 0.000 0.000 50.000 0
6.744 -4.359 -1.274 2.000 0
7.224 -4.638 -1.224 5.000 0
7.711 -4.919 -1.158 4.000 0
8.292 -5.260 -1.088 4.000 0
5.956 -3.863 -1.357 5.000 0
6.366 -4.096 -1.323 2.000 0
6.761 -4.316 -1.272 3.000 0
7.238 -4.589 -1.221 7.000 0
7.726 -4.867 -1.155 4.000 0
8.316 -5.210 -1.086 5.000 0
5.956 -3.815 -1.351 2.000 0
6.389 -4.058 -1.322 3.000 0
6.766 -4.265 -1.266 2.000 0
0.000 0.000 0.000 50.000 0
7.743 -4.815 -1.151 3.000 0
4.678 -2.892 -0.607 24.000 29
5.979 -3.780 -1.350 3.000 0
6.396 -4.010 -1.317 2.000 0
6.788 -4.223 -1.264 2.000 0
4.814 -2.974 -0.804 11.000 29
4.677 -2.870 -0.691 45.000 29
4.666 -2.847 -0.602 63.000 29
5.999 -3.742 -1.348 2.000 0
6.407 -3.963 -1.312 2.000 0
4.709 -2.890 -0.872 24.000 29
4.694 -2.860 -0.779 53.000 29
0.000 0.000 0.000 50.000 0
4.675 -2.813 -0.600 69.000 29
5.999 -3.690 -1.340 3.000 0
4.720 -2.879 -0.961 49.000 29
4.708 -2.849 -0.867 55.000 29
4.694 -2.820 -0.774 47.000 29
4.683 -2.794 -0.684 58.000 29
4.691 -2.782 -0.598 70.000 29
4.732 -2.869 -1.051 18.000 29
4.715 -2.834 -0.955 62.000 29
4.723 -2.816 -0.865 39.000 29
4.709 -2.787 -0.772 60.000 29
4.700 -2.764 -0.682 59.000 29
4.698 -2.746 -0.595 68.000 29
4.745 -2.834 -1.048 36.000 29
4.728 -2.800 -0.952 68.000 29
4.721 -2.774 -0.859 58.000 29
4.715 -2.750 -0.768 62.000 29
4.707 -2.726 -0.678 62.000 29
4.710 -2.711 -0.592 68.000 29
0.000 0.000 0.000 50.000 0
4.739 -2.764 -0.948 73.000 29
4.736 -2.741 -0.857 59.000 29
4.731 -2.717 -0.766 62.000 29
4.729 -2.698 -0.677 32.000 29
4.724 -2.678 -0.589 70.000 29
4.751 -2.752 -1.037 76.000 29
4.744 -2.724 -0.943 68.000 29
4.747 -2.704 -0.853 57.000 29
4.735 -2.677 -0.761 57.000 29
4.734 -2.658 -0.673 61.000 29
4.740 -2.645 -0.587 46.000 29
4.761 -2.715 -1.033 79.000 29
0.000 0.000 0.000 50.000 0
4.756 -2.666 -0.849 56.000 29
4.766 -2.652 -0.761 33.000 29
4.748 -2.624 -0.670 49.000 29
4.751 -2.608 -0.583 48.000 29
4.782 -2.682 -1.031 53.000 29
4.775 -2.655 -0.937 76.000 29
4.772 -2.632 -0.846 46.000 29
4.773 -2.612 -0.757 44.000 29
4.767 -2.590 -0.667 55.000 29
4.768 -2.574 -0.580 41.000 29
4.785 -2.639 -1.024 79.000 29
4.787 -2.617 -0.933 59.000 29
4.784 -2.594 -0.842 47.000 29
4.799 -2.583 -0.755 39.000 29
4.771 -2.549 -0.663 53.000 29
4.780 -2.538 -0.577 37.000 29
4.802 -2.604 -1.021 84.000 29
4.800 -2.580 -0.929 75.000 29
0.000 0.000 0.000 50.000 0
4.817 -2.548 -0.752 17.000 29
4.783 -2.512 -0.659 57.000 29
4.803 -2.506 -0.575 27.000 29
4.816 -2.566 -1.017 83.000 29
4.826 -2.549 -0.927 150.000 29
4.818 -2.523 -0.835 44.000 29
4.831 -2.511 -0.748 19.000 29
4.810 -2.482 -0.657 47.000 29
4.815 -2.469 -0.571 26.000 29
4.825 -2.525 -1.012 87.000 29
0.000 0.000 0.000 50.000 0
4.829 -2.484 -0.831 41.000 29
4.842 -2.472 -0.744 16.000 29
4.817 -2.441 -0.653 43.000 29
4.804 -2.419 -0.565 73.000 29
4.837 -2.485 -1.007 76.000 29
4.836 -2.463 -0.916 74.000 29
4.838 -2.443 -0.826 42.000 29
4.823 -2.417 -0.735 63.000 29
4.818 -2.397 -0.647 63.000 29
4.819 -2.382 -0.561 83.000 29
4.848 -2.445 -1.002 62.000 29
4.852 -2.425 -0.912 76.000 29
4.839 -2.398 -0.820 65.000 29
4.835 -2.378 -0.731 65.000 29
4.826 -2.357 -0.643 67.000 29
4.827 -2.341 -0.557 80.000 29
4.862 -2.406 -0.998 77.000 29
4.879 -2.393 -0.910 54.000 29
0.000 0.000 0.000 50.000 0
4.848 -2.340 -0.727 68.000 29
4.850 -2.324 -0.640 69.000 29
4.842 -2.304 -0.553 85.000 29
4.876 -2.366 -0.993 85.000 29
4.870 -2.343 -0.902 82.000 29
4.868 -2.322 -0.812 72.000 29
4.858 -2.299 -0.722 65.000 29
4.857 -2.282 -0.635 70.000 29
4.853 -2.265 -0.549 85.000 29
4.894 -2.328 -0.990 95.000 29
4.888 -2.305 -0.898 40.000 29
4.880 -2.282 -0.807 75.000 29
4.874 -2.261 -0.718 68.000 29
4.867 -2.241 -0.631 67.000 29
4.866 -2.225 -0.545 89.000 29
4.900 -2.283 -0.983 101.000 29
4.898 -2.262 -0.893 87.000 29
0.000 0.000 0.000 50.000 0
4.883 -2.220 -0.714 67.000 29
4.879 -2.201 -0.627 60.000 29
4.876 -2.185 -0.541 63.000 29
4.914 -2.243 -0.979 68.000 29
4.911 -2.222 -0.888 67.000 29
4.905 -2.201 -0.798 71.000 29
4.901 -2.182 -0.710 65.000 29
4.893 -2.162 -0.622 59.000 29
4.889 -2.146 -0.537 62.000 29
4.928 -2.203 -0.974 74.000 29
4.924 -2.181 -0.884 67.000 29
4.915 -2.159 -0.794 67.000 29
4.912 -2.141 -0.706 62.000 29
4.908 -2.123 -0.619 60.000 29
4.905 -2.107 -0.533 61.000 29
4.944 -2.162 -0.970 76.000 29
4.941 -2.142 -0.880 68.000 29
4.931 -2.120 -0.790 67.000 29
0.000 0.000 0.000 50.000 0
4.919 -2.082 -0.614 61.000 29
4.915 -2.066 -0.529 66.000 29
4.957 -2.121 -0.965 77.000 29
4.948 -2.098 -0.874 72.000 29
4.943 -2.079 -0.785 69.000 29
4.941 -2.061 -0.698 64.000 29
4.935 -2.044 -0.611 61.000 29
4.927 -2.026 -0.525 63.000 29
4.968 -2.078 -0.960 78.000 29
4.960 -2.057 -0.870 67.000 29
4.959 -2.039 -0.781 72.000 29
4.954 -2.021 -0.693 60.000 29
4.945 -2.002 -0.606 60.000 29
4.937 -1.985 -0.520 61.000 29
4.984 -2.037 -0.956 80.000 29
4.978 -2.017 -0.866 72.000 29
4.972 -1.998 -0.777 71.000 29
4.963 -1.978 -0.689 62.000 29
4.959 -1.962 -0.602 60.000 29
4.953 -1.946 -0.517 67.000 29
4.995 -1.995 -0.951 81.000 29
4.990 -1.975 -0.861 73.000 29
4.980 -1.954 -0.772 69.000 29
4.982 -1.939 -0.685 64.000 29
0.000 0.000 0.000 50.000 0
4.964 -1.905 -0.513 67.000 29
5.008 -1.953 -0.947 82.000 29
5.002 -1.933 -0.857 80.000 29
4.996 -1.914 -0.768 72.000 29
4.993 -1.898 -0.681 65.000 29
4.986 -1.881 -0.595 61.000 29
4.977 -1.864 -0.509 65.000 29
5.018 -1.909 -0.942 77.000 29
5.018 -1.892 -0.853 75.000 29
5.008 -1.872 -0.764 71.000 29
5.004 -1.856 -0.677 67.000 29
4.991 -1.837 -0.590 62.000 29
4.990 -1.824 -0.505 69.000 29
5.033 -1.868 -0.938 79.000 29
5.028 -1.849 -0.849 77.000 29
5.023 -1.831 -0.760 74.000 29
5.016 -1.814 -0.673 74.000 29
5.010 -1.798 -0.587 68.000 29
5.001 -1.783 -0.502 70.000 29
5.050 -1.826 -0.934 84.000 29
0.000 0.000 0.000 50.000 0
5.033 -1.788 -0.756 72.000 29
5.030 -1.773 -0.669 75.000 29
5.021 -1.757 -0.583 63.000 29
5.020 -1.743 -0.498 73.000 29
5.061 -1.783 -0.930 81.000 29
5.057 -1.765 -0.841 79.000 29
5.046 -1.746 -0.752 74.000 29
5.045 -1.732 -0.666 71.000 29
5.034 -1.715 -0.579 62.000 29
5.029 -1.702 -0.495 71.000 29
5.075 -1.740 -0.926 84.000 29
5.070 -1.723 -0.837 79.000 29
5.058 -1.704 -0.748 75.000 29
5.059 -1.691 -0.662 71.000 29
5.048 -1.674 -0.576 62.000 29
5.045 -1.661 -0.491 70.000 29
5.084 -1.696 -0.921 83.000 29
5.082 -1.680 -0.833 79.000 29
5.072 -1.663 -0.745 77.000 29
5.073 -1.650 -0.659 71.000 29
5.057 -1.632 -0.572 64.000 29
5.051 -1.618 -0.487 69.000 29
5.108 -1.657 -0.920 84.000 29
5.093 -1.637 -0.829 78.000 29
5.085 -1.621 -0.741 75.000 29
0.000 0.000 0.000 50.000 0
5.071 -1.591 -0.569 61.000 29
5.068 -1.579 -0.485 70.000 29
5.119 -1.614 -0.916 84.000 29
5.108 -1.596 -0.826 76.000 29
5.100 -1.579 -0.738 74.000 29
5.099 -1.566 -0.653 68.000 29
5.085 -1.550 -0.566 60.000 29
5.084 -1.538 -0.482 69.000 29
5.132 -1.571 -0.913 80.000 29
5.122 -1.553 -0.823 78.000 29
5.113 -1.537 -0.735 74.000 29
5.111 -1.524 -0.649 68.000 29
5.099 -1.509 -0.563 61.000 29
5.089 -1.495 -0.478 68.000 29
5.142 -1.527 -0.909 82.000 29
5.135 -1.511 -0.820 76.000 29
0.000 0.000 0.000 50.000 0
5.128 -1.484 -0.647 51.000 29
5.111 -1.468 -0.560 49.000 29
5.108 -1.456 -0.476 51.000 29
5.161 -1.486 -0.907 58.000 29
5.153 -1.470 -0.818 59.000 29
5.140 -1.454 -0.730 54.000 29
5.137 -1.441 -0.644 55.000 29
5.131 -1.428 -0.558 49.000 29
5.126 -1.416 -0.474 50.000 29
5.174 -1.443 -0.904 59.000 29
5.164 -1.427 -0.815 58.000 29
5.152 -1.411 -0.727 56.000 29
5.150 -1.399 -0.641 57.000 29
5.143 -1.386 -0.555 53.000 29
5.137 -1.375 -0.471 52.000 29
5.186 -1.400 -0.901 57.000 29
5.179 -1.385 -0.813 59.000 29
5.166 -1.370 -0.724 57.000 29
5.167 -1.358 -0.639 55.000 29
5.154 -1.344 -0.553 52.000 29
0.000 0.000 0.000 50.000 0
5.200 -1.357 -0.899 55.000 29
5.192 -1.342 -0.810 57.000 29
5.178 -1.327 -0.722 56.000 29
5.178 -1.315 -0.636 54.000 29
5.167 -1.302 -0.550 53.000 29
5.161 -1.291 -0.466 54.000 29
5.217 -1.315 -0.897 58.000 29
5.210 -1.300 -0.809 55.000 29
5.199 -1.287 -0.721 60.000 29
5.188 -1.273 -0.634 54.000 29
5.180 -1.261 -0.548 52.000 29
5.174 -1.250 -0.464 54.000 29
5.226 -1.271 -0.894 56.000 29
5.223 -1.258 -0.806 58.000 29
0.000 0.000 0.000 50.000 0
5.203 -1.232 -0.632 53.000 29
5.197 -1.220 -0.547 53.000 29
5.186 -1.208 -0.462 52.000 29
5.241 -1.228 -0.893 55.000 29
0.000 0.000 0.000 50.000 0
5.226 -1.202 -0.717 61.000 29
5.218 -1.190 -0.631 55.000 29
5.213 -1.179 -0.545 54.000 29
5.196 -1.167 -0.460 56.000 29
5.258 -1.186 -0.892 57.000 29
5.249 -1.173 -0.803 53.000 29
5.236 -1.159 -0.715 62.000 29
0.000 0.000 0.000 50.000 0
5.220 -1.136 -0.543 55.000 29
5.212 -1.125 -0.459 53.000 29
5.268 -1.143 -0.890 57.000 29
5.262 -1.130 -0.802 55.000 29
5.252 -1.118 -0.714 57.000 29
5.245 -1.107 -0.628 51.000 29
5.237 -1.096 -0.542 53.000 29
5.228 -1.085 -0.457 54.000 29
0.000 0.000 0.000 50.000 0
5.276 -1.088 -0.800 57.000 29
5.261 -1.074 -0.712 56.000 29
5.260 -1.065 -0.627 53.000 29
5.253 -1.055 -0.541 52.000 29
5.242 -1.044 -0.456 52.000 29
5.298 -1.057 -0.888 56.000 29
5.289 -1.045 -0.799 53.000 29
5.277 -1.033 -0.711 57.000 29
0.000 0.000 0.000 50.000 0
5.260 -1.011 -0.539 56.000 29
5.253 -1.002 -0.455 53.000 29
5.315 -1.014 -0.888 58.000 29
5.304 -1.002 -0.799 54.000 29
5.296 -0.991 -0.711 56.000 29
5.287 -0.980 -0.625 53.000 29
5.277 -0.969 -0.539 52.000 29
0.000 0.000 0.000 50.000 0
5.329 -0.971 -0.887 56.000 29
5.321 -0.959 -0.799 53.000 29
5.306 -0.947 -0.710 58.000 29
5.301 -0.938 -0.624 53.000 29
5.296 -0.928 -0.539 53.000 29
5.285 -0.919 -0.454 54.000 29
5.341 -0.926 -0.886 57.000 29
5.339 -0.917 -0.799 53.000 29
5.319 -0.904 -0.710 60.000 29
0.000 0.000 0.000 50.000 0
5.303 -0.885 -0.538 50.000 29
5.301 -0.877 -0.453 16.000 29
5.351 -0.883 -0.886 61.000 29
5.350 -0.874 -0.798 28.000 29
5.342 -0.864 -0.711 38.000 29
5.334 -0.854 -0.624 52.000 29
5.316 -0.843 -0.537 54.000 29
0.000 0.000 0.000 50.000 0
5.368 -0.840 -0.887 57.000 29
5.365 -0.831 -0.799 55.000 29
5.350 -0.820 -0.710 54.000 29
5.350 -0.812 -0.624 48.000 29
5.338 -0.803 -0.538 50.000 29
0.000 0.000 0.000 50.000 0
5.386 -0.798 -0.888 62.000 29
5.377 -0.788 -0.799 53.000 29
5.366 -0.778 -0.711 51.000 29
5.362 -0.770 -0.624 48.000 29
5.349 -0.761 -0.538 52.000 29
5.341 -0.753 -0.453 51.000 29
5.396 -0.754 -0.888 60.000 29
5.392 -0.745 -0.799 54.000 29
5.380 -0.735 -0.711 52.000 29
5.380 -0.728 -0.625 49.000 29
0.000 0.000 0.000 50.000 0
5.356 -0.711 -0.453 51.000 29
5.431 -0.713 -0.892 150.000 29
5.411 -0.702 -0.801 52.000 29
5.397 -0.693 -0.712 48.000 29
5.391 -0.685 -0.626 47.000 29
5.370 -0.676 -0.538 49.000 29
5.370 -0.669 -0.454 49.000 29
5.433 -0.668 -0.891 88.000 29
0.000 0.000 0.000 50.000 0
5.414 -0.651 -0.714 48.000 29
5.403 -0.643 -0.626 46.000 29
5.394 -0.635 -0.540 46.000 29
5.383 -0.627 -0.454 48.000 29
5.445 -0.624 -0.892 57.000 29
5.438 -0.616 -0.803 49.000 29
5.428 -0.608 -0.715 48.000 29
5.420 -0.600 -0.627 45.000 29
5.407 -0.592 -0.541 46.000 29
0.000 0.000 0.000 50.000 0
5.458 -0.580 -0.894 57.000 29
5.447 -0.572 -0.804 55.000 29
5.443 -0.565 -0.716 54.000 29
5.438 -0.557 -0.629 50.000 29
5.423 -0.550 -0.542 46.000 29
5.413 -0.543 -0.456 49.000 29
5.466 -0.536 -0.894 58.000 29
5.461 -0.528 -0.806 58.000 29
5.449 -0.520 -0.717 61.000 29
5.442 -0.513 -0.630 57.000 29
0.000 0.000 0.000 50.000 0
5.427 -0.501 -0.457 49.000 29
5.650 -0.507 -0.924 6.000 29
5.857 -0.518 -0.864 5.000 29
5.874 -0.513 -0.773 10.000 29
5.704 -0.492 -0.660 3.000 29
5.445 -0.464 -0.544 54.000 29
5.438 -0.458 -0.458 31.000 29
5.664 -0.461 -0.927 1.000 29
0.000 0.000 0.000 50.000 0
5.612 -0.445 -0.738 0.000 29
5.687 -0.445 -0.658 1.000 29
5.866 -0.453 -0.586 9.000 29
5.444 -0.415 -0.459 56.000 29
5.537 -0.407 -0.906 7.000 29
5.538 -0.400 -0.817 8.000 29
5.514 -0.393 -0.726 6.000 29
5.577 -0.392 -0.646 0.000 29
5.680 -0.394 -0.568 0.000 29
0.000 0.000 0.000 50.000 0
5.547 -0.362 -0.908 8.000 29
5.530 -0.355 -0.817 6.000 29
5.528 -0.349 -0.728 5.000 29
5.524 -0.344 -0.640 4.000 29
5.583 -0.342 -0.559 0.000 29
5.838 -0.353 -0.494 7.000 29
5.598 -0.320 -0.917 10.000 29
5.554 -0.312 -0.821 8.000 29
0.000 0.000 0.000 50.000 0
5.528 -0.300 -0.641 6.000 29
5.536 -0.295 -0.556 5.000 29
5.639 -0.296 -0.478 0.000 29
5.612 -0.275 -0.920 9.000 29
5.629 -0.271 -0.833 10.000 29
5.558 -0.262 -0.734 8.000 29
5.549 -0.257 -0.645 8.000 29
5.537 -0.252 -0.557 4.000 29
0.000 0.000 0.000 50.000 0
5.690 -0.233 -0.934 13.000 29
5.865 -0.235 -0.869 32.000 29
5.826 -0.229 -0.770 31.000 29
5.567 -0.214 -0.648 7.000 29
5.548 -0.209 -0.559 4.000 29
5.550 -0.205 -0.473 5.000 29
5.893 -0.195 -0.969 21.000 29
5.889 -0.190 -0.874 19.000 29
0.000 0.000 0.000 50.000 0
5.737 -0.176 -0.669 37.000 29
5.569 -0.166 -0.562 7.000 29
5.563 -0.162 -0.475 4.000 29
5.909 -0.148 -0.973 26.000 29
5.724 -0.139 -0.851 11.000 29
5.793 -0.136 -0.769 10.000 29
5.875 -0.134 -0.687 25.000 29
5.584 -0.123 -0.565 7.000 29
5.577 -0.119 -0.478 6.000 29
0.000 0.000 0.000 50.000 0
5.729 -0.094 -0.854 12.000 29
5.757 -0.090 -0.766 10.000 29
5.857 -0.088 -0.687 11.000 29
5.614 -0.081 -0.570 10.000 29
5.587 -0.076 -0.481 6.000 29
5.816 -0.053 -0.962 18.000 29
5.729 -0.049 -0.855 13.000 29
5.729 -0.045 -0.764 12.000 29
5.844 -0.043 -0.687 8.000 29
0.000 0.000 0.000 50.000 0
5.602 -0.034 -0.484 7.000 29
5.851 -0.008 -0.970 15.000 29
5.748 -0.004 -0.860 12.000 29
5.743 -0.001 -0.768 13.000 29
5.888 0.002 -0.695 12.000 29
5.791 0.005 -0.592 11.000 29
5.634 0.008 -0.488 8.000 29
5.949 0.038 -0.988 21.000 29
5.766 0.040 -0.865 12.000 29
0.000 0.000 0.000 50.000 0
5.929 0.047 -0.702 16.000 29
5.773 0.049 -0.593 12.000 29
5.630 0.051 -0.490 11.000 29
6.077 0.086 -1.012 22.000 29
5.798 0.085 -0.873 14.000 29
5.791 0.088 -0.779 12.000 29
5.958 0.093 -0.708 29.000 29
5.723 0.093 -0.590 13.000 29
0.000 0.000 0.000 50.000 0
5.943 0.130 -0.993 26.000 29
5.967 0.133 -0.901 35.000 29
5.985 0.136 -0.808 17.000 29
6.027 0.140 -0.718 15.000 29
5.704 0.135 -0.591 12.000 29
5.683 0.137 -0.500 9.000 29
5.826 0.172 -0.976 28.000 29
5.986 0.179 -0.907 25.000 29
5.954 0.180 -0.807 32.000 29
0.000 0.000 0.000 50.000 0
5.689 0.177 -0.591 11.000 29
5.685 0.179 -0.502 9.000 29
5.794 0.215 -0.974 23.000 29
5.838 0.219 -0.887 19.000 29
5.830 0.220 -0.793 13.000 29
5.776 0.220 -0.694 13.000 29
5.712 0.220 -0.596 9.000 29
0.000 0.000 0.000 50.000 0
5.762 0.258 -0.971 23.000 29
5.788 0.260 -0.883 15.000 29
5.783 0.262 -0.789 13.000 29
5.739 0.262 -0.692 12.000 29
5.696 0.262 -0.598 11.000 29
5.721 0.265 -0.511 9.000 29
5.793 0.303 -0.980 11.000 29
0.000 0.000 0.000 50.000 0
5.809 0.307 -0.796 11.000 29
5.749 0.305 -0.697 9.000 29
5.732 0.306 -0.604 8.000 29
5.730 0.308 -0.514 8.000 29
5.787 0.347 -0.983 7.000 29
5.791 0.348 -0.890 10.000 29
5.767 0.348 -0.794 9.000 29
5.803 0.351 -0.706 11.000 29
0.000 0.000 0.000 50.000 0
6.290 0.384 -0.568 6.000 29
5.815 0.392 -0.991 4.000 29
5.790 0.391 -0.893 6.000 29
5.784 0.391 -0.799 5.000 29
5.776 0.392 -0.706 6.000 29
5.792 0.394 -0.617 9.000 29
0.000 0.000 0.000 50.000 0
6.720 0.503 -1.149 6.000 29
5.822 0.436 -0.901 8.000 29
5.804 0.436 -0.805 5.000 29
5.926 0.446 -0.728 10.000 29
6.090 0.459 -0.652 19.000 29
6.061 0.458 -0.554 18.000 29
0.000 0.000 0.000 50.000 0
6.034 0.496 -0.938 14.000 29
6.030 0.496 -0.840 9.000 29
6.012 0.495 -0.742 9.000 29
5.988 0.494 -0.644 6.000 29
5.968 0.493 -0.548 9.000 29
5.939 0.532 -1.023 19.000 29
5.891 0.527 -0.919 14.000 29
0.000 0.000 0.000 50.000 0
5.934 0.532 -0.736 12.000 29
5.838 0.524 -0.632 15.000 29
5.760 0.517 -0.533 48.000 29
5.860 0.568 -1.014 52.000 29
5.835 0.565 -0.914 51.000 29
5.820 0.563 -0.818 47.000 29
5.807 0.562 -0.724 48.000 29
5.786 0.560 -0.629 44.000 29
0.000 0.000 0.000 50.000 0
5.908 0.615 -1.026 44.000 29
5.860 0.610 -0.922 55.000 29
5.845 0.608 -0.826 51.000 29
5.841 0.608 -0.732 54.000 29
5.816 0.605 -0.636 51.000 29
5.807 0.604 -0.544 49.000 29
5.973 0.666 -1.041 24.000 29
5.878 0.655 -0.929 55.000 29
0.000 0.000 0.000 50.000 0
5.848 0.650 -0.736 54.000 29
5.831 0.648 -0.641 52.000 29
5.816 0.646 -0.548 48.000 29
6.030 0.716 -1.055 15.000 29
5.898 0.699 -0.936 54.000 29
5.874 0.695 -0.837 52.000 29
5.851 0.692 -0.740 237.000 29
5.842 0.690 -0.646 46.000 29
5.839 0.690 -0.553 44.000 29
0.000 0.000 0.000 50.000 0
5.907 0.742 -0.942 54.000 29
5.897 0.739 -0.844 53.000 29
5.850 0.732 -0.744 151.000 29
5.862 0.733 -0.652 51.000 29
5.854 0.732 -0.558 47.000 29
6.579 0.874 -1.161 6.000 29
5.927 0.786 -0.948 57.000 29
5.907 0.782 -0.849 54.000 29
5.873 0.776 -0.750 184.000 29
0.000 0.000 0.000 50.000 0
5.863 0.773 -0.562 46.000 29
6.553 0.917 -1.161 4.000 29
5.945 0.830 -0.956 55.000 29
5.924 0.825 -0.856 52.000 29
5.911 0.822 -0.758 55.000 29
5.892 0.818 -0.662 53.000 29
5.883 0.816 -0.567 48.000 29
6.542 0.960 -1.163 6.000 29
0.000 0.000 0.000 50.000 0
5.938 0.867 -0.861 55.000 29
5.924 0.864 -0.764 59.000 29
5.910 0.860 -0.667 58.000 29
5.896 0.857 -0.572 54.000 29
6.527 1.003 -1.165 5.000 29
5.981 0.916 -0.969 62.000 29
0.000 0.000 0.000 50.000 0
5.939 0.905 -0.769 57.000 29
5.924 0.901 -0.672 59.000 29
5.912 0.899 -0.577 54.000 29
6.515 1.045 -1.167 5.000 29
6.000 0.960 -0.976 34.000 29
5.974 0.953 -0.874 50.000 29
5.959 0.948 -0.775 57.000 29
5.934 0.943 -0.677 55.000 29
5.926 0.940 -0.581 55.000 29
0.000 0.000 0.000 50.000 0
6.008 1.001 -0.981 57.000 29
5.984 0.994 -0.879 55.000 29
5.972 0.990 -0.780 58.000 29
5.954 0.985 -0.682 56.000 29
5.942 0.981 -0.586 49.000 29
6.475 1.126 -1.169 5.000 29
6.027 1.044 -0.988 49.000 29
5.999 1.037 -0.885 54.000 29
5.989 1.032 -0.786 57.000 29
0.000 0.000 0.000 50.000 0
5.955 1.022 -0.590 46.000 29
6.461 1.166 -1.170 4.000 29
6.058 1.089 -0.997 37.000 29
6.022 1.079 -0.892 55.000 29
6.000 1.072 -0.791 55.000 29
5.986 1.068 -0.692 55.000 29
5.972 1.063 -0.595 40.000 29
6.446 1.205 -1.171 4.000 29
6.104 1.137 -1.008 24.000 29
0.000 0.000 0.000 50.000 0
6.015 1.114 -0.796 56.000 29
5.997 1.108 -0.697 54.000 29
5.986 1.104 -0.599 36.000 29
6.432 1.244 -1.173 4.000 29
6.258 1.205 -1.037 15.000 29
6.045 1.161 -0.902 55.000 29
6.027 1.154 -0.800 56.000 29
6.013 1.149 -0.701 54.000 29
5.996 1.143 -0.603 35.000 29
6.406 1.279 -1.172 4.000 29
6.440 1.281 -1.071 8.000 29
0.000 0.000 0.000 50.000 0
6.044 1.195 -0.806 56.000 29
6.027 1.188 -0.705 54.000 29
6.018 1.184 -0.608 37.000 29
6.398 1.318 -1.173 4.000 29
6.685 1.371 -1.115 4.000 29
6.072 1.241 -0.912 55.000 29
6.049 1.233 -0.809 57.000 29
6.039 1.228 -0.709 55.000 29
6.025 1.222 -0.611 38.000 29
6.380 1.353 -1.173 3.000 29
6.737 1.423 -1.127 4.000 29
6.088 1.281 -0.917 54.000 29
6.073 1.274 -0.815 56.000 29
6.052 1.266 -0.713 54.000 29
6.035 1.260 -0.614 43.000 29
6.372 1.390 -1.175 4.000 29
6.731 1.462 -1.129 4.000 29
0.000 0.000 0.000 50.000 0
6.089 1.313 -0.819 56.000 29
6.064 1.304 -0.717 54.000 29
6.048 1.298 -0.617 49.000 29
6.358 1.425 -1.176 3.000 29
6.720 1.499 -1.129 5.000 29
6.116 1.359 -0.926 54.000 29
6.097 1.351 -0.823 55.000 29
6.073 1.342 -0.720 55.000 29
6.058 1.335 -0.620 50.000 29
6.347 1.459 -1.176 3.000 29
6.708 1.535 -1.130 4.000 29
6.134 1.399 -0.931 55.000 29
6.118 1.391 -0.828 56.000 29
6.092 1.381 -0.724 54.000 29
6.075 1.373 -0.624 50.000 29
6.334 1.493 -1.176 3.000 29
6.698 1.571 -1.131 4.000 29
6.144 1.436 -0.935 53.000 29
6.128 1.427 -0.831 55.000 29
6.114 1.420 -0.729 54.000 29
6.091 1.411 -0.627 52.000 29
6.329 1.527 -1.177 3.000 29
0.000 0.000 0.000 50.000 0
6.158 1.473 -0.938 53.000 29
6.141 1.464 -0.834 55.000 29
6.121 1.454 -0.731 53.000 29
6.104 1.447 -0.629 50.000 29
6.316 1.558 -1.177 3.000 29
6.676 1.639 -1.131 4.000 29
6.166 1.508 -0.941 52.000 29
6.146 1.498 -0.836 53.000 29
6.133 1.490 -0.733 52.000 29
6.113 1.481 -0.631 48.000 29
6.311 1.590 -1.177 2.000 29
6.666 1.672 -1.131 2.000 29
6.184 1.545 -0.945 49.000 29
6.158 1.533 -0.838 52.000 29
6.146 1.525 -0.736 52.000 29
6.123 1.515 -0.633 47.000 29
6.298 1.620 -1.176 1.000 29
6.670 1.708 -1.132 4.000 29
6.193 1.579 -0.947 46.000 29
6.171 1.568 -0.841 53.000 29
6.155 1.559 -0.737 52.000 29
6.131 1.549 -0.634 53.000 29
0.000 0.000 0.000 50.000 0
6.651 1.736 -1.130 4.000 29
6.218 1.617 -0.952 21.000 29
6.184 1.602 -0.843 37.000 29
6.162 1.591 -0.738 52.000 29
6.147 1.583 -0.636 48.000 29
6.280 1.678 -1.174 2.000 29
6.649 1.768 -1.130 1.000 29
6.238 1.652 -0.955 19.000 29
6.194 1.634 -0.845 50.000 29
6.175 1.624 -0.740 45.000 29
6.163 1.617 -0.638 48.000 29
6.290 1.710 -1.176 2.000 29
6.651 1.800 -1.130 1.000 29
6.259 1.687 -0.958 18.000 29
6.203 1.666 -0.846 51.000 29
6.182 1.655 -0.741 39.000 29
6.168 1.646 -0.638 48.000 29
6.284 1.737 -1.175 3.000 29
6.647 1.829 -1.130 3.000 29
6.270 1.718 -0.960 18.000 29
6.213 1.696 -0.847 50.000 29
0.000 0.000 0.000 50.000 0
6.183 1.678 -0.638 23.000 29
6.277 1.764 -1.174 3.000 29
6.648 1.859 -1.129 1.000 29
6.283 1.750 -0.961 17.000 29
6.222 1.726 -0.847 53.000 29
6.205 1.715 -0.742 49.000 29
6.192 1.707 -0.639 47.000 29
6.277 1.790 -1.173 3.000 29
6.646 1.887 -1.128 4.000 29
6.354 1.796 -0.971 16.000 29
6.235 1.756 -0.848 52.000 29
6.216 1.745 -0.742 50.000 29
6.199 1.735 -0.638 47.000 29
6.287 1.819 -1.174 1.000 29
6.650 1.915 -1.127 3.000 29
6.373 1.827 -0.972 15.000 29
6.245 1.784 -0.847 51.000 29
6.227 1.773 -0.742 49.000 29
6.207 1.762 -0.637 47.000 29
6.290 1.845 -1.172 1.000 29
6.656 1.942 -1.126 2.000 29
6.389 1.857 -0.973 14.000 29
6.254 1.810 -0.847 51.000 29
6.239 1.800 -0.741 49.000 29
0.000 0.000 0.000 50.000 0
6.285 1.866 -1.170 2.000 29
6.656 1.967 -1.125 1.000 29
6.399 1.883 -0.972 14.000 29
