# .PCD v.7 - Point Cloud Data file format
VERSION .7
FIELDS x y z intensity class
SIZE 4 4 4 4
TYPE F F F F
COUNT 1 1 1 1WIDTH 23955
HEIGHT 1
VIEWPOINT 0 0 0 1 0 0 0
POINTS 1733
DATA ascii
8.739 3.918 -0.720 4.000 0
0.000 0.000 0.000 50.000 0
10.232 4.598 -0.494 3.000 0
7.123 3.266 -0.967 4.000 0
7.574 3.470 -0.895 3.000 0
8.101 3.710 -0.817 3.000 0
8.698 3.985 -0.726 4.000 0
9.403 4.311 -0.624 5.000 0
0.000 0.000 0.000 50.000 0
7.086 3.319 -0.971 4.000 0
7.541 3.529 -0.901 3.000 0
8.067 3.774 -0.823 3.000 0
8.659 4.052 -0.732 4.000 0
9.351 4.378 -0.630 5.000 0
10.138 4.752 -0.508 4.000 0
7.051 3.373 -0.976 4.000 0
7.502 3.586 -0.905 3.000 0
0.000 0.000 0.000 50.000 0
8.616 4.116 -0.738 4.000 0
9.304 4.446 -0.636 5.000 0
10.092 4.828 -0.516 4.000 0
7.021 3.430 -0.981 3.000 0
7.468 3.643 -0.911 3.000 0
7.997 3.899 -0.834 3.000 0
8.575 4.180 -0.744 4.000 0
0.000 0.000 0.000 50.000 0
10.037 4.900 -0.522 3.000 0
6.988 3.484 -0.986 3.000 0
7.436 3.702 -0.916 3.000 0
7.946 3.954 -0.838 3.000 0
8.531 4.243 -0.750 4.000 0
9.210 4.582 -0.649 5.000 0
9.984 4.972 -0.529 4.000 0
0.000 0.000 0.000 50.000 0
7.396 3.757 -0.921 4.000 0
7.918 4.018 -0.845 4.000 0
8.496 4.311 -0.756 5.000 0
9.164 4.651 -0.655 6.000 0
9.929 5.043 -0.535 4.000 0
6.923 3.592 -0.996 1.000 0
7.360 3.813 -0.926 4.000 0
7.871 4.074 -0.849 4.000 0
0.000 0.000 0.000 50.000 0
9.118 4.717 -0.661 5.000 0
9.804 5.076 -0.538 3.000 0
6.889 3.644 -1.000 5.000 0
7.327 3.870 -0.931 4.000 0
7.832 4.132 -0.854 4.000 0
8.404 4.432 -0.767 5.000 0
9.073 4.785 -0.667 5.000 0
9.817 5.180 -0.548 40.000 15
6.856 3.696 -1.005 4.000 0
0.000 0.000 0.000 50.000 0
7.785 4.185 -0.858 4.000 0
8.367 4.495 -0.772 5.000 0
9.041 4.857 -0.674 5.000 0
9.816 5.276 -0.557 23.000 15
6.822 3.748 -1.009 4.000 0
7.254 3.978 -0.940 4.000 0
7.757 4.248 -0.865 4.000 0
8.330 4.559 -0.778 5.000 0
8.996 4.923 -0.679 5.000 0
9.815 5.373 -0.566 9.000 15
0.000 0.000 0.000 50.000 0
7.226 4.036 -0.946 4.000 0
7.717 4.304 -0.869 4.000 0
8.298 4.625 -0.784 5.000 0
8.948 4.985 -0.685 5.000 0
9.695 5.403 -0.568 4.000 0
6.763 3.853 -1.018 5.000 0
7.191 4.089 -0.950 3.000 0
0.000 0.000 0.000 50.000 0
8.259 4.685 -0.789 5.000 0
8.920 5.058 -0.691 4.000 0
9.646 5.471 -0.574 4.000 0
6.728 3.902 -1.022 5.000 0
7.165 4.147 -0.955 4.000 0
7.654 4.423 -0.879 4.000 0
8.220 4.745 -0.794 5.000 0
8.878 5.123 -0.697 3.000 0
0.000 0.000 0.000 50.000 0
6.695 3.951 -1.026 5.000 0
7.126 4.195 -0.959 4.000 0
7.614 4.476 -0.883 4.000 0
8.183 4.805 -0.799 5.000 0
8.838 5.187 -0.702 4.000 0
9.573 5.619 -0.587 5.000 0
6.667 4.002 -1.030 5.000 0
7.101 4.253 -0.964 4.000 0
7.591 4.538 -0.889 4.000 0
0.000 0.000 0.000 50.000 0
8.795 5.249 -0.707 3.000 0
9.527 5.686 -0.592 5.000 0
6.642 4.053 -1.035 5.000 0
7.064 4.301 -0.968 4.000 0
7.556 4.592 -0.893 4.000 0
8.117 4.927 -0.809 5.000 0
8.765 5.317 -0.712 4.000 0
9.494 5.759 -0.598 5.000 0
6.611 4.101 -1.038 5.000 3
7.037 4.354 -0.972 4.000 0
0.000 0.000 0.000 50.000 0
8.080 4.984 -0.813 5.000 0
8.730 5.380 -0.717 4.000 0
9.445 5.820 -0.602 5.000 0
6.555 4.131 -1.037 9.000 3
7.008 4.406 -0.975 4.000 3
7.500 4.705 -0.902 4.000 0
8.060 5.050 -0.818 5.000 0
8.691 5.441 -0.721 5.000 0
9.399 5.883 -0.606 5.000 0
0.000 0.000 0.000 50.000 0
6.979 4.456 -0.979 4.000 3
7.475 4.762 -0.907 4.000 0
8.025 5.105 -0.822 5.000 0
8.659 5.504 -0.725 4.000 0
9.377 5.959 -0.611 5.000 0
6.534 4.247 -1.049 16.000 3
6.923 4.487 -0.978 11.000 3
7.444 4.814 -0.910 4.000 3
7.984 5.155 -0.825 5.000 0
0.000 0.000 0.000 50.000 0
9.352 6.032 -0.616 5.000 0
6.532 4.308 -1.056 9.000 3
6.936 4.562 -0.988 14.000 3
7.409 4.863 -0.912 4.000 3
7.961 5.217 -0.829 5.000 0
8.600 5.630 -0.733 4.000 0
9.320 6.099 -0.620 5.000 0
6.490 4.343 -1.056 3.000 3
6.914 4.614 -0.991 14.000 3
0.000 0.000 0.000 50.000 0
7.939 5.277 -0.833 5.000 3
8.571 5.692 -0.737 4.000 0
9.292 6.168 -0.624 5.000 0
6.462 4.386 -1.058 3.000 3
6.916 4.680 -0.998 7.000 3
7.374 4.979 -0.921 13.000 3
7.916 5.336 -0.836 4.000 3
8.549 5.756 -0.741 5.000 0
9.264 6.235 -0.627 5.000 0
0.000 0.000 0.000 50.000 0
6.878 4.719 -0.999 3.000 3
7.359 5.037 -0.925 15.000 3
7.862 5.372 -0.836 6.000 3
8.522 5.817 -0.744 6.000 3
9.230 6.297 -0.630 6.000 0
6.414 4.474 -1.063 3.000 0
6.853 4.765 -1.000 3.000 3
7.360 5.105 -0.930 5.000 3
0.000 0.000 0.000 50.000 0
8.497 5.876 -0.746 5.000 3
9.222 6.375 -0.634 4.000 0
6.398 4.521 -1.066 2.000 0
6.837 4.816 -1.003 3.000 0
7.312 5.138 -0.930 4.000 3
7.868 5.518 -0.847 15.000 3
8.455 5.923 -0.747 7.000 3
9.200 6.442 -0.637 5.000 0
6.372 4.560 -1.067 3.000 0
6.813 4.859 -1.005 3.000 0
0.000 0.000 0.000 50.000 0
7.870 5.589 -0.852 6.000 3
8.464 6.003 -0.752 14.000 3
9.192 6.515 -0.640 6.000 0
6.372 4.615 -1.072 3.000 0
6.792 4.903 -1.007 3.000 0
7.276 5.239 -0.934 4.000 0
7.826 5.624 -0.851 5.000 3
8.459 6.072 -0.755 12.000 3
0.000 0.000 0.000 50.000 0
6.348 4.652 -1.072 3.000 0
6.781 4.952 -1.009 3.000 0
7.262 5.290 -0.936 3.000 0
7.806 5.675 -0.852 5.000 0
8.483 6.160 -0.761 7.000 3
9.163 6.649 -0.644 11.000 3
6.331 4.692 -1.074 2.000 0
6.764 4.996 -1.010 3.000 0
7.247 5.338 -0.938 3.000 0
0.000 0.000 0.000 50.000 0
8.444 6.199 -0.760 4.000 3
9.155 6.717 -0.645 10.000 3
6.327 4.739 -1.077 3.000 0
6.757 5.044 -1.012 3.000 0
7.232 5.384 -0.939 3.000 0
7.775 5.777 -0.855 4.000 0
8.420 6.248 -0.760 5.000 0
9.181 6.808 -0.649 8.000 3
6.312 4.778 -1.077 3.000 0
0.000 0.000 0.000 50.000 0
7.228 5.437 -0.941 3.000 0
7.772 5.835 -0.857 3.000 0
8.433 6.322 -0.763 5.000 0
9.162 6.864 -0.649 6.000 3
6.298 4.814 -1.077 2.000 0
6.736 5.131 -1.015 3.000 0
7.212 5.478 -0.941 4.000 0
7.764 5.886 -0.857 4.000 0
0.000 0.000 0.000 50.000 0
9.153 6.925 -0.649 6.000 0
6.297 4.860 -1.080 3.000 0
6.723 5.170 -1.015 3.000 0
7.218 5.535 -0.944 4.000 0
7.760 5.938 -0.858 4.000 0
8.406 6.424 -0.763 5.000 0
9.144 6.983 -0.649 5.000 0
6.288 4.895 -1.080 2.000 0
6.724 5.216 -1.016 3.000 0
7.208 5.576 -0.943 3.000 0
7.759 5.989 -0.859 4.000 0
8.406 6.480 -0.763 5.000 0
0.000 0.000 0.000 50.000 0
6.283 4.932 -1.080 3.000 0
6.717 5.254 -1.016 3.000 0
7.207 5.621 -0.943 3.000 0
7.739 6.025 -0.857 4.000 0
8.396 6.527 -0.761 5.000 0
9.142 7.102 -0.648 5.000 0
6.279 4.969 -1.081 3.000 0
6.717 5.296 -1.017 3.000 0
7.204 5.664 -0.943 3.000 0
7.735 6.069 -0.856 3.000 0
8.412 6.591 -0.762 5.000 0
9.144 7.160 -0.646 5.000 0
6.283 5.009 -1.082 3.000 0
0.000 0.000 0.000 50.000 0
7.199 5.702 -0.943 3.000 0
7.753 6.128 -0.857 3.000 0
8.406 6.635 -0.760 4.000 0
9.157 7.224 -0.645 4.000 0
6.279 5.040 -1.081 3.000 0
6.710 5.366 -1.016 3.000 0
7.207 5.748 -0.942 3.000 0
7.747 6.166 -0.855 3.000 0
8.413 6.687 -0.759 4.000 0
9.178 7.290 -0.644 4.000 0
6.271 5.065 -1.079 3.000 0
0.000 0.000 0.000 50.000 0
7.209 5.786 -0.942 3.000 0
7.761 6.215 -0.855 4.000 0
8.436 6.747 -0.759 4.000 0
9.170 7.330 -0.640 4.000 0
6.282 5.103 -1.080 2.000 0
6.719 5.438 -1.015 3.000 0
7.210 5.820 -0.940 3.000 0
7.757 6.248 -0.853 3.000 0
8.433 6.784 -0.756 4.000 0
9.190 7.389 -0.638 4.000 0
6.284 5.131 -1.079 2.000 0
6.725 5.472 -1.014 4.000 0
0.000 0.000 0.000 50.000 0
7.777 6.297 -0.852 3.000 0
8.449 6.832 -0.754 4.000 0
9.192 7.429 -0.635 4.000 0
6.288 5.158 -1.078 3.000 0
6.731 5.502 -1.012 3.000 0
7.224 5.888 -0.937 4.000 0
7.787 6.334 -0.850 4.000 0
8.457 6.871 -0.751 4.000 0
9.218 7.485 -0.632 4.000 0
6.304 5.192 -1.078 3.000 0
6.735 5.527 -1.010 3.000 0
0.000 0.000 0.000 50.000 0
7.801 6.371 -0.848 4.000 0
8.469 6.908 -0.748 4.000 0
9.243 7.536 -0.629 4.000 0
6.301 5.207 -1.074 3.000 0
6.750 5.559 -1.010 3.000 0
7.244 5.948 -0.933 4.000 0
7.810 6.401 -0.845 4.000 0
8.495 6.954 -0.746 4.000 0
9.281 7.594 -0.626 4.000 0
6.320 5.238 -1.074 3.000 0
6.762 5.584 -1.007 3.000 0
7.265 5.983 -0.931 4.000 0
7.833 6.438 -0.843 4.000 0
8.519 6.994 -0.743 4.000 0
9.304 7.635 -0.623 4.000 0
6.323 5.252 -1.071 3.000 0
0.000 0.000 0.000 50.000 0
7.264 5.997 -0.927 4.000 0
7.844 6.463 -0.839 4.000 0
8.519 7.010 -0.738 4.000 0
9.304 7.654 -0.617 4.000 0
6.335 5.270 -1.069 3.000 0
6.791 5.630 -1.004 3.000 0
7.289 6.027 -0.926 4.000 0
7.870 6.495 -0.837 3.000 0
8.559 7.055 -0.735 4.000 0
9.332 7.690 -0.612 4.000 0
0.000 0.000 0.000 50.000 0
6.799 5.643 -1.000 3.000 0
7.299 6.041 -0.921 4.000 0
7.905 6.531 -0.835 3.000 0
8.571 7.073 -0.730 5.000 0
9.390 7.747 -0.609 4.000 0
6.362 5.300 -1.064 3.000 0
6.812 5.655 -0.997 3.000 0
7.334 6.073 -0.920 4.000 0
7.917 6.544 -0.830 3.000 0
8.614 7.113 -0.727 5.000 0
9.401 7.760 -0.603 4.000 0
6.376 5.311 -1.062 3.000 0
6.842 5.680 -0.996 3.000 0
0.000 0.000 0.000 50.000 0
7.939 6.561 -0.827 3.000 0
8.635 7.130 -0.723 4.000 0
9.439 7.792 -0.598 4.000 0
6.396 5.324 -1.060 3.000 0
6.853 5.685 -0.992 4.000 0
7.374 6.101 -0.914 4.000 0
7.953 6.569 -0.822 3.000 0
8.658 7.144 -0.718 4.000 0
9.468 7.811 -0.593 4.000 0
6.419 5.335 -1.058 3.000 0
6.870 5.691 -0.988 3.000 0
0.000 0.000 0.000 50.000 0
7.993 6.593 -0.819 3.000 0
8.688 7.160 -0.713 4.000 0
9.506 7.832 -0.587 4.000 0
6.437 5.339 -1.054 3.000 0
6.901 5.705 -0.986 4.000 0
7.411 6.112 -0.906 3.000 0
8.009 6.594 -0.814 4.000 0
8.721 7.173 -0.709 4.000 0
9.538 7.844 -0.582 4.000 0
6.464 5.347 -1.053 3.000 0
6.917 5.704 -0.982 4.000 0
7.433 6.114 -0.902 4.000 0
8.049 6.610 -0.811 4.000 0
8.751 7.180 -0.704 4.000 0
0.000 0.000 0.000 50.000 0
6.481 5.344 -1.050 4.000 0
6.928 5.695 -0.977 3.000 0
7.465 6.121 -0.899 4.000 0
8.080 6.615 -0.807 4.000 0
8.786 7.187 -0.699 4.000 0
9.614 7.864 -0.571 3.000 0
6.496 5.336 -1.045 3.000 0
6.956 5.696 -0.974 4.000 0
7.495 6.124 -0.896 4.000 0
8.104 6.610 -0.802 3.000 0
8.821 7.190 -0.695 4.000 0
9.660 7.873 -0.565 4.000 0
0.000 0.000 0.000 50.000 0
6.995 5.703 -0.973 3.000 0
7.518 6.116 -0.891 4.000 0
8.132 6.605 -0.798 4.000 0
8.837 7.172 -0.688 4.000 0
9.681 7.857 -0.559 4.000 0
6.538 5.321 -1.038 3.000 0
7.014 5.691 -0.969 3.000 0
7.541 6.105 -0.887 3.000 0
8.169 6.603 -0.794 4.000 0
8.887 7.178 -0.685 4.000 0
0.000 0.000 0.000 50.000 0
6.553 5.304 -1.034 4.000 0
7.029 5.673 -0.964 3.000 0
7.570 6.096 -0.883 3.000 0
8.176 6.575 -0.788 4.000 0
8.913 7.161 -0.679 3.000 0
9.769 7.850 -0.549 4.000 0
6.594 5.305 -1.034 3.000 0
0.000 0.000 0.000 50.000 0
7.601 6.085 -0.880 3.000 0
8.224 6.574 -0.786 4.000 0
8.972 7.167 -0.677 4.000 0
9.802 7.830 -0.544 4.000 0
6.601 5.276 -1.028 2.000 0
7.091 5.651 -0.959 3.000 0
7.612 6.054 -0.874 4.000 0
8.270 6.567 -0.783 3.000 0
9.005 7.147 -0.672 4.000 0
9.845 7.814 -0.538 5.000 0
0.000 0.000 0.000 50.000 0
7.106 5.623 -0.954 3.000 0
7.648 6.039 -0.872 4.000 0
8.281 6.530 -0.777 4.000 0
9.030 7.116 -0.667 4.000 0
9.881 7.788 -0.533 5.000 0
6.664 5.247 -1.024 3.000 0
7.138 5.605 -0.952 3.000 0
7.679 6.017 -0.868 4.000 0
8.308 6.502 -0.773 4.000 0
0.000 0.000 0.000 50.000 0
9.916 7.757 -0.528 5.000 0
6.685 5.222 -1.021 3.000 0
7.152 5.571 -0.947 3.000 0
7.696 5.983 -0.864 4.000 0
8.341 6.475 -0.769 4.000 0
9.081 7.046 -0.657 6.000 0
9.952 7.723 -0.523 5.000 0
6.700 5.188 -1.017 3.000 0
0.000 0.000 0.000 50.000 0
7.724 5.952 -0.860 4.000 0
8.362 6.437 -0.765 4.000 0
9.124 7.018 -0.654 5.000 0
9.984 7.682 -0.518 6.000 0
6.724 5.159 -1.014 3.000 0
7.219 5.524 -0.943 3.000 0
7.765 5.930 -0.859 4.000 0
8.396 6.404 -0.762 5.000 0
0.000 0.000 0.000 50.000 0
10.060 7.670 -0.517 7.000 3
6.753 5.131 -1.012 3.000 0
7.244 5.490 -0.940 4.000 0
7.773 5.879 -0.854 3.000 0
8.421 6.362 -0.758 5.000 0
9.168 6.923 -0.645 6.000 0
10.061 7.598 -0.512 10.000 3
6.765 5.089 -1.008 3.000 0
0.000 0.000 0.000 50.000 0
7.795 5.837 -0.850 3.000 0
8.447 6.318 -0.755 4.000 0
9.211 6.886 -0.643 6.000 3
10.055 7.517 -0.505 10.000 3
6.792 5.055 -1.006 2.000 0
7.267 5.394 -0.931 3.000 0
7.823 5.796 -0.848 4.000 0
8.473 6.270 -0.752 4.000 0
9.228 6.825 -0.639 8.000 3
10.048 7.434 -0.500 6.000 3
6.815 5.017 -1.003 2.000 0
0.000 0.000 0.000 50.000 0
7.851 5.754 -0.846 4.000 0
8.498 6.221 -0.749 5.000 3
9.260 6.775 -0.636 11.000 3
10.093 7.386 -0.498 8.000 0
6.820 4.964 -0.999 2.000 0
7.327 5.319 -0.929 4.000 0
7.869 5.702 -0.843 5.000 3
8.527 6.171 -0.747 13.000 3
9.203 6.657 -0.628 8.000 3
10.112 7.316 -0.495 7.000 0
6.862 4.875 -0.995 3.000 0
7.361 5.217 -0.923 4.000 3
7.920 5.602 -0.840 13.000 3
8.505 6.009 -0.737 13.000 3
9.284 6.556 -0.626 6.000 0
0.000 0.000 0.000 50.000 0
6.887 4.831 -0.994 3.000 0
7.373 5.159 -0.921 5.000 3
7.928 5.537 -0.836 15.000 3
8.541 5.958 -0.737 7.000 3
9.280 6.470 -0.623 6.000 0
10.161 7.085 -0.489 8.000 0
6.893 4.772 -0.991 3.000 3
7.403 5.113 -0.920 14.000 3
0.000 0.000 0.000 50.000 0
8.564 5.897 -0.735 7.000 3
9.298 6.398 -0.621 5.000 0
10.177 7.004 -0.487 7.000 0
6.921 4.728 -0.991 3.000 3
7.408 5.048 -0.917 16.000 3
7.949 5.406 -0.832 6.000 3
8.570 5.821 -0.733 7.000 0
9.310 6.320 -0.620 6.000 0
10.187 6.916 -0.486 7.000 0
6.943 4.676 -0.990 14.000 3
0.000 0.000 0.000 50.000 0
7.955 5.335 -0.829 5.000 3
8.589 5.754 -0.732 7.000 0
9.313 6.235 -0.618 4.000 0
10.210 6.836 -0.487 6.000 0
6.943 4.611 -0.986 14.000 3
7.416 4.913 -0.912 4.000 3
7.971 5.271 -0.829 5.000 0
8.594 5.676 -0.731 6.000 0
9.324 6.153 -0.617 4.000 0
10.207 6.736 -0.485 6.000 0
6.953 4.550 -0.984 14.000 3
0.000 0.000 0.000 50.000 0
7.980 5.200 -0.827 5.000 0
8.602 5.598 -0.730 5.000 0
9.327 6.066 -0.617 4.000 0
10.217 6.645 -0.486 5.000 0
6.935 4.471 -0.979 6.000 3
7.447 4.789 -0.910 4.000 0
0.000 0.000 0.000 50.000 0
8.616 5.523 -0.730 5.000 0
9.356 5.995 -0.618 4.000 0
10.204 6.537 -0.485 6.000 0
6.962 4.420 -0.980 3.000 3
7.432 4.707 -0.906 4.000 0
7.987 5.049 -0.824 4.000 0
8.626 5.445 -0.729 5.000 0
9.333 5.888 -0.616 5.000 0
10.216 6.444 -0.486 5.000 0
0.000 0.000 0.000 50.000 0
7.450 4.645 -0.907 4.000 0
7.996 4.975 -0.824 4.000 0
8.629 5.362 -0.729 4.000 0
9.353 5.807 -0.618 5.000 0
10.228 6.350 -0.488 6.000 0
6.978 4.292 -0.978 4.000 0
7.458 4.576 -0.906 4.000 0
8.006 4.903 -0.824 4.000 0
0.000 0.000 0.000 50.000 0
9.343 5.709 -0.618 5.000 0
10.200 6.231 -0.488 5.000 0
6.984 4.226 -0.977 5.000 0
7.465 4.506 -0.906 4.000 0
8.020 4.831 -0.825 4.000 0
8.627 5.190 -0.729 4.000 0
9.347 5.618 -0.619 5.000 0
0.000 0.000 0.000 50.000 0
6.986 4.158 -0.976 4.000 0
7.469 4.433 -0.905 3.000 0
8.014 4.747 -0.824 4.000 0
8.638 5.109 -0.730 4.000 0
9.346 5.523 -0.620 4.000 0
10.191 6.020 -0.492 6.000 15
6.995 4.092 -0.976 3.000 0
7.469 4.358 -0.905 4.000 0
8.000 4.659 -0.822 4.000 0
0.000 0.000 0.000 50.000 0
9.339 5.425 -0.621 5.000 0
10.247 5.950 -0.497 8.000 15
6.989 4.018 -0.975 3.000 0
7.476 4.286 -0.905 4.000 0
8.015 4.586 -0.825 4.000 0
8.636 4.934 -0.732 5.000 0
9.347 5.335 -0.624 6.000 0
10.204 5.822 -0.498 25.000 15
7.006 3.957 -0.976 3.000 0
0.000 0.000 0.000 50.000 0
8.012 4.504 -0.825 4.000 0
8.630 4.844 -0.733 4.000 0
9.333 5.233 -0.625 6.000 0
10.147 5.686 -0.498 50.000 15
7.012 3.890 -0.977 3.000 0
7.476 4.135 -0.905 4.000 0
8.020 4.427 -0.826 4.000 0
8.613 4.746 -0.733 5.000 0
9.314 5.127 -0.626 5.000 0
10.115 5.564 -0.500 54.000 15
0.000 0.000 0.000 50.000 0
7.475 4.059 -0.906 4.000 0
8.015 4.342 -0.827 4.000 0
8.613 4.658 -0.735 4.000 0
9.308 5.028 -0.629 6.000 0
10.097 5.451 -0.503 55.000 15
7.007 3.743 -0.976 2.000 0
7.477 3.983 -0.907 3.000 0
8.004 4.254 -0.828 4.000 0
0.000 0.000 0.000 50.000 0
9.298 4.928 -0.631 6.000 0
10.075 5.336 -0.506 55.000 15
7.010 3.674 -0.977 5.000 0
7.483 3.911 -0.908 3.000 0
8.001 4.171 -0.828 4.000 0
8.598 4.474 -0.738 5.000 0
9.282 4.825 -0.633 6.000 0
10.071 5.231 -0.511 6.000 15
7.022 3.609 -0.979 2.000 0
0.000 0.000 0.000 50.000 0
8.002 4.091 -0.830 4.000 0
8.589 4.383 -0.740 5.000 0
9.285 4.731 -0.637 6.000 0
10.056 5.120 -0.514 6.000 0
7.007 3.531 -0.978 1.000 0
7.482 3.758 -0.911 3.000 0
7.991 4.005 -0.831 4.000 0
8.577 4.290 -0.741 5.000 0
9.281 4.635 -0.640 6.000 0
0.000 0.000 0.000 50.000 0
7.013 3.462 -0.979 4.000 0
7.462 3.672 -0.910 3.000 0
7.975 3.915 -0.832 4.000 0
8.565 4.197 -0.744 5.000 0
9.249 4.526 -0.642 6.000 0
10.006 4.892 -0.522 7.000 0
7.016 3.393 -0.980 4.000 0
7.454 3.594 -0.910 3.000 0
7.966 3.831 -0.833 4.000 0
8.559 4.108 -0.746 4.000 0
0.000 0.000 0.000 50.000 0
9.998 4.785 -0.526 5.000 0
7.005 3.317 -0.980 4.000 0
7.448 3.516 -0.911 3.000 0
7.967 3.751 -0.836 3.000 0
8.550 4.017 -0.749 4.000 0
9.211 4.320 -0.648 5.000 0
9.990 4.681 -0.531 6.000 0
7.001 3.245 -0.981 4.000 0
0.000 0.000 0.000 50.000 0
7.952 3.664 -0.837 4.000 0
8.542 3.928 -0.751 4.000 0
9.197 4.221 -0.651 5.000 0
9.950 4.562 -0.535 5.000 0
6.999 3.174 -0.982 4.000 0
7.438 3.363 -0.914 5.000 0
7.945 3.582 -0.839 5.000 0
8.516 3.830 -0.753 4.000 0
0.000 0.000 0.000 50.000 0
9.923 4.449 -0.538 5.000 0
6.999 3.104 -0.984 5.000 0
7.434 3.286 -0.916 6.000 0
7.928 3.495 -0.840 7.000 0
8.511 3.743 -0.756 4.000 0
9.155 4.019 -0.657 5.000 0
9.919 4.348 -0.544 4.000 0
0.000 0.000 0.000 50.000 0
7.414 3.205 -0.916 5.000 0
7.916 3.412 -0.842 6.000 0
8.492 3.650 -0.758 4.000 0
9.142 3.922 -0.661 4.000 0
9.907 4.244 -0.549 5.000 0
6.975 2.956 -0.984 5.000 0
7.409 3.129 -0.918 6.000 0
7.907 3.329 -0.844 6.000 0
0.000 0.000 0.000 50.000 0
9.127 3.824 -0.665 4.000 0
9.873 4.130 -0.553 4.000 0
6.975 2.887 -0.986 5.000 0
7.404 3.053 -0.920 5.000 0
7.903 3.249 -0.847 7.000 0
8.475 3.475 -0.764 4.000 0
9.106 3.726 -0.668 4.000 0
0.000 0.000 0.000 50.000 0
6.966 2.815 -0.987 6.000 0
7.404 2.981 -0.922 6.000 0
7.889 3.166 -0.849 6.000 0
8.451 3.383 -0.766 6.000 0
9.094 3.632 -0.672 4.000 0
9.838 3.921 -0.562 4.000 0
6.958 2.744 -0.988 6.000 0
7.389 2.903 -0.923 6.000 0
7.883 3.086 -0.851 7.000 0
0.000 0.000 0.000 50.000 0
9.065 3.531 -0.675 4.000 0
9.818 3.818 -0.567 5.000 0
6.948 2.672 -0.989 6.000 0
7.374 2.825 -0.924 7.000 0
7.870 3.006 -0.853 7.000 0
8.427 3.209 -0.772 5.000 0
9.052 3.439 -0.678 4.000 0
9.788 3.710 -0.571 5.000 0
0.000 0.000 0.000 50.000 0
7.376 2.756 -0.927 6.000 0
7.866 2.929 -0.856 6.000 0
8.417 3.124 -0.775 4.000 0
9.032 3.343 -0.682 4.000 0
9.781 3.613 -0.577 5.000 0
6.926 2.531 -0.990 6.000 0
7.357 2.678 -0.927 7.000 0
7.844 2.845 -0.857 6.000 0
8.397 3.035 -0.777 3.000 0
0.000 0.000 0.000 50.000 0
9.756 3.508 -0.581 5.000 0
6.923 2.463 -0.992 6.000 0
7.356 2.606 -0.930 6.000 0
7.837 2.766 -0.860 7.000 0
8.381 2.949 -0.780 3.000 0
8.997 3.156 -0.689 4.000 0
9.724 3.404 -0.585 5.000 0
0.000 0.000 0.000 50.000 0
7.344 2.532 -0.931 7.000 0
7.819 2.685 -0.861 6.000 0
8.363 2.862 -0.782 3.000 0
8.987 3.067 -0.693 4.000 0
9.701 3.302 -0.589 5.000 0
6.907 2.326 -0.994 6.000 0
7.340 2.461 -0.934 6.000 0
7.816 2.610 -0.864 6.000 0
8.349 2.778 -0.785 3.000 0
0.000 0.000 0.000 50.000 0
9.679 3.201 -0.593 5.000 0
6.906 2.260 -0.996 7.000 0
7.328 2.388 -0.935 7.000 0
7.799 2.530 -0.866 6.000 0
8.345 2.697 -0.789 2.000 0
8.949 2.883 -0.700 4.000 0
9.660 3.104 -0.598 7.000 0
6.888 2.190 -0.996 7.000 0
7.320 2.316 -0.937 7.000 0
0.000 0.000 0.000 50.000 0
8.325 2.612 -0.791 5.000 0
8.938 2.795 -0.703 4.000 0
9.647 3.008 -0.602 8.000 3
6.878 2.122 -0.997 7.000 0
7.305 2.243 -0.938 6.000 0
7.771 2.375 -0.869 5.000 0
8.312 2.530 -0.794 3.000 0
8.939 2.711 -0.708 4.000 0
9.664 2.921 -0.609 24.000 3
0.000 0.000 0.000 50.000 0
7.295 2.171 -0.939 5.000 0
7.766 2.300 -0.872 4.000 0
8.300 2.448 -0.796 3.000 0
8.907 2.617 -0.710 5.000 0
9.601 2.812 -0.610 40.000 3
6.871 1.991 -1.001 5.000 0
7.287 2.101 -0.941 5.000 0
7.750 2.224 -0.874 4.000 0
8.278 2.365 -0.798 3.000 0
0.000 0.000 0.000 50.000 0
9.536 2.704 -0.611 60.000 3
6.870 1.928 -1.003 5.000 0
7.285 2.033 -0.943 5.000 0
0.000 0.000 0.000 50.000 0
8.277 2.288 -0.802 4.000 0
8.874 2.442 -0.716 7.000 0
9.479 2.599 -0.613 42.000 3
6.860 1.862 -1.003 5.000 0
7.271 1.962 -0.944 5.000 0
7.729 2.075 -0.877 5.000 0
8.274 2.211 -0.805 5.000 0
8.857 2.356 -0.719 7.000 0
9.433 2.499 -0.615 22.000 3
6.853 1.797 -1.005 5.000 0
0.000 0.000 0.000 50.000 0
7.729 2.005 -0.880 4.000 0
8.253 2.130 -0.806 5.000 0
8.834 2.269 -0.721 17.000 3
9.487 2.426 -0.623 8.000 3
6.844 1.732 -1.006 5.000 0
7.262 1.828 -0.948 5.000 0
7.718 1.931 -0.882 5.000 0
8.251 2.054 -0.810 6.000 0
0.000 0.000 0.000 50.000 0
9.480 2.338 -0.627 8.000 3
6.850 1.672 -1.008 5.000 0
7.258 1.760 -0.950 5.000 0
7.709 1.859 -0.884 5.000 0
8.238 1.976 -0.812 6.000 0
8.828 2.107 -0.729 35.000 3
9.471 2.250 -0.631 7.000 0
0.000 0.000 0.000 50.000 0
7.252 1.693 -0.952 5.000 0
7.696 1.787 -0.885 5.000 0
8.221 1.897 -0.813 6.000 0
8.774 2.014 -0.728 58.000 3
9.444 2.157 -0.633 6.000 0
0.000 0.000 0.000 50.000 0
7.246 1.627 -0.953 5.000 0
7.687 1.715 -0.887 5.000 0
8.193 1.817 -0.814 7.000 0
8.729 1.925 -0.728 58.000 3
9.432 2.069 -0.637 5.000 0
6.821 1.481 -1.010 5.000 0
7.231 1.559 -0.954 5.000 0
7.685 1.645 -0.889 5.000 0
8.196 1.744 -0.817 7.000 0
0.000 0.000 0.000 50.000 0
9.412 1.979 -0.640 4.000 0
6.826 1.420 -1.013 5.000 0
7.226 1.492 -0.955 5.000 0
7.687 1.576 -0.892 6.000 0
8.183 1.667 -0.819 8.000 3
8.689 1.759 -0.731 19.000 3
9.412 1.894 -0.644 3.000 0
6.814 1.357 -1.013 5.000 0
7.217 1.426 -0.956 5.000 0
7.675 1.505 -0.893 6.000 0
0.000 0.000 0.000 50.000 0
8.748 1.692 -0.740 8.000 3
9.411 1.809 -0.647 3.000 0
6.806 1.295 -1.014 5.000 0
7.219 1.362 -0.958 5.000 0
7.671 1.437 -0.895 6.000 0
8.198 1.524 -0.826 27.000 3
0.000 0.000 0.000 50.000 0
9.386 1.721 -0.649 3.000 0
6.807 1.236 -1.016 4.000 0
7.213 1.298 -0.960 5.000 0
7.658 1.367 -0.896 6.000 0
8.144 1.443 -0.823 58.000 3
8.723 1.534 -0.744 7.000 0
9.392 1.639 -0.653 3.000 0
6.802 1.175 -1.016 5.000 0
7.213 1.235 -0.962 6.000 0
0.000 0.000 0.000 50.000 0
8.112 1.365 -0.822 65.000 3
8.714 1.455 -0.746 7.000 0
9.377 1.554 -0.655 3.000 0
6.803 1.115 -1.018 5.000 0
7.198 1.169 -0.961 5.000 0
7.638 1.229 -0.898 7.000 0
8.076 1.289 -0.821 47.000 3
0.000 0.000 0.000 50.000 0
9.361 1.470 -0.657 4.000 29
6.791 1.055 -1.018 5.000 0
7.196 1.107 -0.963 6.000 0
7.643 1.164 -0.901 7.000 3
8.069 1.217 -0.823 25.000 3
8.703 1.301 -0.750 6.000 0
9.357 1.386 -0.660 3.000 29
0.000 0.000 0.000 50.000 0
7.183 1.042 -0.963 6.000 0
7.629 1.095 -0.901 6.000 3
8.091 1.150 -0.827 10.000 3
8.699 1.224 -0.752 5.000 0
9.322 1.300 -0.660 4.000 29
6.794 0.937 -1.021 4.000 0
7.176 0.979 -0.963 6.000 0
7.641 1.031 -0.904 19.000 3
0.000 0.000 0.000 50.000 0
8.696 1.149 -0.754 6.000 0
9.325 1.219 -0.663 4.000 29
6.795 0.879 -1.023 5.000 0
7.177 0.917 -0.965 6.000 0
7.612 0.961 -0.902 47.000 3
8.117 1.013 -0.834 8.000 0
8.695 1.073 -0.757 5.000 0
9.324 1.139 -0.666 3.000 29
6.791 0.820 -1.023 5.000 0
7.161 0.854 -0.965 6.000 0
0.000 0.000 0.000 50.000 0
8.103 0.943 -0.834 7.000 0
8.686 0.998 -0.758 5.000 0
9.324 1.059 -0.668 4.000 29
6.785 0.762 -1.024 5.000 0
7.155 0.793 -0.965 6.000 0
7.554 0.826 -0.899 64.000 3
8.106 0.874 -0.836 7.000 0
8.683 0.924 -0.760 5.000 0
9.316 0.979 -0.670 5.000 29
6.778 0.647 -1.025 5.000 0
7.150 0.671 -0.967 7.000 3
7.531 0.696 -0.899 20.000 3
0.000 0.000 0.000 50.000 0
8.675 0.776 -0.762 5.000 29
9.306 0.820 -0.673 4.000 29
6.771 0.589 -1.025 5.000 0
7.174 0.613 -0.971 11.000 3
7.584 0.637 -0.906 7.000 3
8.094 0.668 -0.840 5.000 0
8.674 0.703 -0.764 5.000 29
9.298 0.740 -0.674 5.000 29
6.770 0.532 -1.026 5.000 0
0.000 0.000 0.000 50.000 0
7.580 0.572 -0.907 7.000 3
8.101 0.599 -0.842 5.000 0
8.684 0.630 -0.766 4.000 29
8.599 0.612 -0.625 5.000 29
6.752 0.474 -1.024 6.000 0
7.123 0.489 -0.966 45.000 3
7.587 0.510 -0.909 6.000 0
8.105 0.532 -0.843 4.000 0
8.556 0.550 -0.756 3.000 29
0.000 0.000 0.000 50.000 0
6.756 0.418 -1.025 6.000 0
7.115 0.430 -0.966 55.000 3
7.586 0.447 -0.910 6.000 0
8.100 0.466 -0.844 5.000 0
8.456 0.474 -0.749 3.000 29
8.474 0.462 -0.619 8.000 29
6.763 0.363 -1.027 6.000 0
7.100 0.371 -0.965 50.000 3
0.000 0.000 0.000 50.000 0
8.112 0.399 -0.846 5.000 0
8.386 0.400 -0.744 2.000 29
8.381 0.388 -0.613 8.000 29
6.761 0.307 -1.028 6.000 3
7.085 0.311 -0.964 25.000 3
7.595 0.322 -0.913 6.000 0
8.109 0.332 -0.847 5.000 0
8.371 0.330 -0.744 2.000 29
8.279 0.314 -0.606 5.000 29
0.000 0.000 0.000 50.000 0
7.101 0.253 -0.967 12.000 3
7.593 0.260 -0.914 5.000 0
8.105 0.265 -0.848 5.000 0
8.527 0.266 -0.758 2.000 29
8.302 0.247 -0.609 2.000 29
6.784 0.197 -1.033 15.000 3
7.135 0.197 -0.972 6.000 3
0.000 0.000 0.000 50.000 0
8.102 0.200 -0.848 5.000 29
8.649 0.200 -0.770 5.000 29
8.193 0.177 -0.602 7.000 29
6.748 0.142 -1.028 37.000 3
7.144 0.139 -0.974 6.000 3
7.599 0.136 -0.916 5.000 0
8.099 0.133 -0.849 4.000 29
8.651 0.129 -0.771 6.000 29
0.000 0.000 0.000 50.000 0
6.721 0.086 -1.024 46.000 3
7.133 0.081 -0.973 5.000 0
7.607 0.075 -0.918 5.000 0
8.100 0.068 -0.850 5.000 29
8.647 0.060 -0.772 6.000 29
8.094 0.044 -0.596 79.000 29
6.701 0.033 -1.022 55.000 3
7.137 0.024 -0.975 5.000 0
7.600 0.014 -0.917 4.000 0
0.000 0.000 0.000 50.000 0
8.645 -0.009 -0.772 6.000 29
8.091 -0.021 -0.597 99.000 29
6.692 -0.020 -1.021 43.000 3
7.136 -0.033 -0.975 5.000 0
7.607 -0.046 -0.919 6.000 0
8.093 -0.061 -0.850 4.000 29
8.650 -0.078 -0.773 7.000 29
8.076 -0.086 -0.597 77.000 29
0.000 0.000 0.000 50.000 0
7.138 -0.089 -0.976 6.000 0
7.598 -0.107 -0.919 5.000 0
8.097 -0.126 -0.851 5.000 29
8.644 -0.148 -0.774 7.000 29
8.116 -0.151 -0.600 36.000 29
6.706 -0.128 -1.025 11.000 3
7.141 -0.147 -0.977 6.000 0
7.605 -0.168 -0.920 5.000 0
8.095 -0.191 -0.852 5.000 29
0.000 0.000 0.000 50.000 0
8.135 -0.217 -0.602 25.000 29
6.740 -0.182 -1.031 6.000 3
7.137 -0.203 -0.977 5.000 0
7.597 -0.227 -0.920 4.000 0
8.102 -0.255 -0.853 6.000 29
8.653 -0.285 -0.776 6.000 29
8.139 -0.281 -0.603 32.000 29
6.732 -0.234 -1.030 10.000 3
0.000 0.000 0.000 50.000 0
7.605 -0.287 -0.922 4.000 0
8.090 -0.318 -0.853 5.000 29
8.653 -0.354 -0.777 7.000 29
8.190 -0.347 -0.608 8.000 29
6.728 -0.287 -1.030 6.000 0
7.148 -0.315 -0.980 4.000 0
7.600 -0.347 -0.922 4.000 0
8.088 -0.382 -0.853 6.000 29
8.651 -0.422 -0.777 7.000 29
8.242 -0.415 -0.612 7.000 29
0.000 0.000 0.000 50.000 0
7.147 -0.371 -0.981 4.000 0
7.606 -0.407 -0.923 4.000 0
8.090 -0.445 -0.854 6.000 29
8.651 -0.489 -0.778 7.000 29
8.301 -0.482 -0.617 6.000 29
6.735 -0.392 -1.033 5.000 0
7.147 -0.427 -0.982 4.000 0
7.604 -0.466 -0.924 5.000 0
8.095 -0.508 -0.856 6.000 29
0.000 0.000 0.000 50.000 0
8.413 -0.554 -0.626 5.000 29
6.734 -0.445 -1.034 5.000 0
7.147 -0.483 -0.983 4.000 0
7.599 -0.524 -0.924 4.000 0
8.085 -0.570 -0.855 6.000 29
8.658 -0.624 -0.780 7.000 29
8.603 -0.634 -0.641 3.000 29
6.735 -0.497 -1.035 5.000 0
7.150 -0.538 -0.984 4.000 0
0.000 0.000 0.000 50.000 0
8.081 -0.633 -0.856 7.000 29
8.654 -0.691 -0.781 7.000 29
8.816 -0.718 -0.658 3.000 29
6.733 -0.549 -1.035 4.000 0
7.154 -0.593 -0.986 5.000 0
7.594 -0.641 -0.925 4.000 0
8.092 -0.695 -0.858 7.000 29
0.000 0.000 0.000 50.000 0
9.151 -0.815 -0.684 3.000 29
6.722 -0.599 -1.035 5.000 0
7.147 -0.647 -0.986 4.000 0
7.594 -0.699 -0.927 5.000 0
8.091 -0.756 -0.859 6.000 29
8.644 -0.822 -0.782 7.000 29
9.294 -0.898 -0.695 3.000 29
6.745 -0.653 -1.040 4.000 0
7.144 -0.701 -0.986 4.000 0
0.000 0.000 0.000 50.000 0
8.089 -0.817 -0.860 6.000 29
8.650 -0.888 -0.784 7.000 29
9.290 -0.968 -0.696 3.000 29
6.733 -0.702 -1.039 5.000 0
7.142 -0.755 -0.987 4.000 0
7.587 -0.813 -0.928 5.000 0
8.081 -0.877 -0.861 7.000 29
0.000 0.000 0.000 50.000 0
9.300 -1.039 -0.698 3.000 0
6.741 -0.753 -1.041 4.000 0
7.138 -0.808 -0.988 4.000 0
7.581 -0.868 -0.929 5.000 0
8.074 -0.937 -0.861 6.000 29
8.643 -1.016 -0.786 6.000 29
0.000 0.000 0.000 50.000 0
6.753 -0.805 -1.045 3.000 0
7.127 -0.859 -0.988 4.000 0
7.585 -0.925 -0.931 5.000 0
8.086 -0.998 -0.864 8.000 29
8.647 -1.081 -0.788 5.000 29
9.295 -1.176 -0.701 3.000 0
6.750 -0.855 -1.046 4.000 0
7.130 -0.912 -0.990 4.000 0
0.000 0.000 0.000 50.000 0
8.063 -1.054 -0.863 7.000 0
8.644 -1.144 -0.789 4.000 29
9.292 -1.244 -0.703 3.000 0
6.738 -0.902 -1.046 4.000 0
7.131 -0.965 -0.992 4.000 0
7.586 -1.037 -0.934 5.000 0
8.066 -1.114 -0.866 7.000 0
8.629 -1.204 -0.790 3.000 0
0.000 0.000 0.000 50.000 0
6.742 -0.952 -1.048 4.000 0
7.126 -1.016 -0.994 4.000 0
7.570 -1.089 -0.934 6.000 0
8.060 -1.171 -0.867 7.000 0
8.630 -1.267 -0.792 3.000 0
9.294 -1.379 -0.707 3.000 0
6.746 -1.001 -1.051 4.000 0
7.121 -1.066 -0.995 4.000 0
0.000 0.000 0.000 50.000 0
8.063 -1.230 -0.869 8.000 0
8.622 -1.328 -0.793 3.000 0
9.279 -1.443 -0.708 3.000 0
6.738 -1.049 -1.052 4.000 0
7.119 -1.117 -0.997 5.000 0
7.562 -1.197 -0.938 6.000 0
8.052 -1.286 -0.871 7.000 0
8.610 -1.387 -0.795 3.000 0
0.000 0.000 0.000 50.000 0
6.733 -1.095 -1.054 5.000 0
7.114 -1.167 -0.999 4.000 0
7.554 -1.249 -0.939 6.000 0
8.039 -1.340 -0.871 6.000 0
8.624 -1.450 -0.799 3.000 0
9.254 -1.570 -0.711 3.000 0
6.731 -1.143 -1.056 4.000 0
0.000 0.000 0.000 50.000 0
7.546 -1.300 -0.941 7.000 0
8.023 -1.393 -0.872 6.000 0
8.608 -1.507 -0.800 3.000 0
9.245 -1.633 -0.713 3.000 0
6.730 -1.189 -1.059 4.000 0
7.106 -1.265 -1.003 5.000 0
7.545 -1.352 -0.944 6.000 0
8.022 -1.449 -0.875 7.000 0
8.604 -1.566 -0.803 3.000 0
9.216 -1.691 -0.714 3.000 0
0.000 0.000 0.000 50.000 0
7.107 -1.314 -1.006 5.000 0
7.542 -1.404 -0.946 6.000 0
8.017 -1.503 -0.878 6.000 0
8.596 -1.624 -0.805 2.000 0
9.211 -1.754 -0.717 3.000 0
6.717 -1.280 -1.063 4.000 0
7.113 -1.364 -1.010 6.000 0
7.534 -1.454 -0.949 6.000 0
0.000 0.000 0.000 50.000 0
8.575 -1.678 -0.807 2.000 0
9.199 -1.813 -0.720 3.000 0
6.707 -1.324 -1.065 4.000 0
7.107 -1.411 -1.013 5.000 0
7.529 -1.504 -0.952 7.000 0
8.001 -1.608 -0.883 6.000 0
8.568 -1.734 -0.810 3.000 0
0.000 0.000 0.000 50.000 0
6.703 -1.368 -1.068 4.000 0
7.094 -1.456 -1.015 6.000 0
7.519 -1.551 -0.954 6.000 0
7.996 -1.660 -0.887 6.000 0
8.555 -1.787 -0.812 3.000 0
9.214 -1.938 -0.730 10.000 3
6.697 -1.411 -1.070 4.000 0
0.000 0.000 0.000 50.000 0
7.508 -1.598 -0.957 6.000 0
7.976 -1.708 -0.889 5.000 0
8.527 -1.837 -0.814 3.000 0
9.213 -1.998 -0.734 14.000 3
6.689 -1.453 -1.073 4.000 0
7.076 -1.545 -1.020 6.000 0
7.500 -1.645 -0.960 6.000 0
7.973 -1.759 -0.893 5.000 0
0.000 0.000 0.000 50.000 0
9.176 -2.049 -0.736 24.000 3
6.677 -1.495 -1.075 5.000 0
7.063 -1.588 -1.022 6.000 0
7.489 -1.692 -0.963 6.000 0
7.957 -1.807 -0.896 4.000 0
8.498 -1.940 -0.821 3.000 0
9.156 -2.103 -0.740 27.000 3
0.000 0.000 0.000 50.000 0
7.041 -1.627 -1.024 6.000 0
7.477 -1.736 -0.967 7.000 0
7.941 -1.853 -0.899 3.000 0
8.480 -1.989 -0.824 3.000 0
9.113 -2.149 -0.742 33.000 3
6.649 -1.573 -1.080 4.000 0
7.032 -1.670 -1.028 6.000 0
7.468 -1.780 -0.971 6.000 0
0.000 0.000 0.000 50.000 0
8.460 -2.036 -0.828 2.000 0
9.083 -2.197 -0.745 33.000 3
6.633 -1.610 -1.082 4.000 0
7.005 -1.706 -1.029 5.000 0
7.447 -1.821 -0.973 6.000 0
7.907 -1.941 -0.906 3.000 0
8.448 -2.084 -0.832 3.000 0
9.041 -2.241 -0.747 35.000 3
0.000 0.000 0.000 50.000 0
7.002 -1.747 -1.034 6.000 0
7.431 -1.861 -0.976 6.000 0
7.892 -1.985 -0.910 3.000 0
8.428 -2.129 -0.837 3.000 0
9.000 -2.284 -0.750 34.000 3
6.603 -1.682 -1.088 4.000 0
6.983 -1.784 -1.037 6.000 0
7.408 -1.899 -0.979 6.000 0
0.000 0.000 0.000 50.000 0
8.406 -2.172 -0.841 2.000 0
8.953 -2.324 -0.753 34.000 3
6.584 -1.716 -1.091 4.000 0
6.957 -1.818 -1.038 6.000 0
7.387 -1.936 -0.983 6.000 0
7.850 -2.065 -0.917 3.000 0
8.387 -2.215 -0.846 2.000 0
0.000 0.000 0.000 50.000 0
6.563 -1.748 -1.093 5.000 0
6.936 -1.852 -1.041 7.000 0
7.364 -1.972 -0.986 6.000 0
7.837 -2.105 -0.922 3.000 0
8.349 -2.251 -0.849 2.000 0
8.900 -2.410 -0.763 33.000 3
6.543 -1.780 -1.096 5.000 0
6.924 -1.888 -1.046 7.000 0
0.000 0.000 0.000 50.000 0
7.808 -2.141 -0.926 3.000 0
8.340 -2.294 -0.855 3.000 0
8.864 -2.448 -0.768 31.000 3
6.529 -1.812 -1.100 5.000 0
6.901 -1.919 -1.049 6.000 0
7.321 -2.040 -0.993 6.000 0
7.787 -2.176 -0.931 3.000 0
8.301 -2.328 -0.859 2.000 0
0.000 0.000 0.000 50.000 0
6.501 -1.839 -1.102 5.000 0
6.873 -1.948 -1.051 6.000 0
7.291 -2.071 -0.997 6.000 0
7.755 -2.208 -0.934 3.000 0
8.269 -2.361 -0.863 2.000 0
8.783 -2.516 -0.776 30.000 3
6.485 -1.869 -1.106 5.000 0
6.850 -1.977 -1.055 6.000 0
0.000 0.000 0.000 50.000 0
7.738 -2.242 -0.940 3.000 0
8.249 -2.397 -0.869 3.000 0
8.758 -2.552 -0.783 29.000 3
6.462 -1.895 -1.108 5.000 0
6.825 -2.004 -1.058 6.000 0
7.234 -2.127 -1.003 5.000 0
7.698 -2.268 -0.943 3.000 0
8.221 -2.428 -0.874 3.000 0
0.000 0.000 0.000 50.000 0
6.438 -1.920 -1.112 5.000 0
6.801 -2.030 -1.062 5.000 0
7.217 -2.157 -1.009 6.000 0
7.666 -2.295 -0.947 3.000 0
8.184 -2.456 -0.879 3.000 0
8.682 -2.612 -0.793 33.000 3
6.416 -1.944 -1.115 5.000 0
6.776 -2.055 -1.066 6.000 0
7.188 -2.182 -1.013 5.000 0
0.000 0.000 0.000 50.000 0
8.156 -2.484 -0.885 3.000 0
8.647 -2.640 -0.799 31.000 3
6.395 -1.968 -1.119 5.000 0
6.751 -2.078 -1.070 5.000 0
7.160 -2.206 -1.017 5.000 0
7.601 -2.344 -0.956 3.000 0
8.138 -2.514 -0.892 3.000 0
8.624 -2.670 -0.807 33.000 3
0.000 0.000 0.000 50.000 0
6.731 -2.101 -1.074 5.000 0
7.133 -2.228 -1.021 5.000 0
7.580 -2.370 -0.962 3.000 0
8.090 -2.533 -0.896 3.000 0
8.585 -2.693 -0.812 32.000 3
6.347 -2.008 -1.126 5.000 0
6.703 -2.121 -1.078 6.000 0
7.097 -2.246 -1.024 6.000 0
0.000 0.000 0.000 50.000 0
8.051 -2.553 -0.900 3.000 0
8.555 -2.717 -0.819 33.000 3
6.331 -2.029 -1.131 5.000 0
6.673 -2.139 -1.081 7.000 0
7.068 -2.265 -1.029 5.000 0
7.511 -2.408 -0.971 3.000 0
8.023 -2.575 -0.907 2.000 0
8.523 -2.739 -0.826 33.000 3
0.000 0.000 0.000 50.000 0
6.648 -2.156 -1.085 5.000 0
7.036 -2.281 -1.033 5.000 0
7.475 -2.424 -0.975 2.000 0
7.983 -2.591 -0.912 2.000 0
8.493 -2.759 -0.833 33.000 3
6.279 -2.061 -1.138 5.000 0
6.627 -2.173 -1.090 6.000 0
7.015 -2.300 -1.038 5.000 0
0.000 0.000 0.000 50.000 0
7.940 -2.604 -0.916 2.000 0
8.464 -2.777 -0.840 32.000 3
6.250 -2.073 -1.141 5.000 0
6.589 -2.183 -1.093 6.000 0
6.973 -2.309 -1.041 6.000 0
7.411 -2.453 -0.985 2.000 0
7.904 -2.617 -0.922 2.000 0
8.439 -2.796 -0.848 31.000 3
6.221 -2.085 -1.144 5.000 0
6.567 -2.198 -1.097 6.000 0
0.000 0.000 0.000 50.000 0
7.365 -2.461 -0.988 2.000 0
7.864 -2.627 -0.927 3.000 0
8.402 -2.808 -0.855 30.000 3
6.196 -2.095 -1.147 5.000 0
6.550 -2.212 -1.103 6.000 0
6.922 -2.335 -1.051 6.000 0
7.342 -2.474 -0.994 2.000 0
0.000 0.000 0.000 50.000 0
8.386 -2.825 -0.863 24.000 3
6.172 -2.106 -1.151 5.000 0
6.522 -2.221 -1.107 6.000 0
6.885 -2.341 -1.054 5.000 0
7.310 -2.483 -0.999 3.000 0
7.785 -2.643 -0.937 2.000 0
8.343 -2.832 -0.869 23.000 3
6.155 -2.117 -1.156 5.000 0
6.482 -2.224 -1.109 6.000 0
6.852 -2.348 -1.058 6.000 0
7.268 -2.486 -1.002 3.000 0
0.000 0.000 0.000 50.000 0
8.307 -2.838 -0.876 13.000 3
6.132 -2.124 -1.160 5.000 0
6.456 -2.231 -1.113 6.000 0
6.825 -2.354 -1.063 6.000 0
7.237 -2.492 -1.008 4.000 0
7.704 -2.650 -0.946 3.000 0
8.262 -2.840 -0.881 9.000 3
6.102 -2.128 -1.163 5.000 0
0.000 0.000 0.000 50.000 0
6.791 -2.356 -1.066 6.000 0
7.202 -2.494 -1.012 5.000 0
7.670 -2.653 -0.952 3.000 0
8.202 -2.834 -0.885 7.000 0
6.075 -2.131 -1.166 5.000 0
6.408 -2.241 -1.121 6.000 0
6.774 -2.363 -1.072 6.000 0
7.171 -2.496 -1.016 5.000 0
7.629 -2.652 -0.956 3.000 0
8.142 -2.826 -0.888 3.000 0
6.054 -2.134 -1.170 5.000 0
6.384 -2.243 -1.125 6.000 0
0.000 0.000 0.000 50.000 0
7.145 -2.498 -1.021 5.000 0
7.597 -2.651 -0.962 3.000 0
8.094 -2.820 -0.893 3.000 0
6.034 -2.137 -1.174 6.000 0
6.353 -2.242 -1.128 6.000 0
6.710 -2.361 -1.079 6.000 0
0.000 0.000 0.000 50.000 0
7.554 -2.645 -0.966 2.000 0
8.053 -2.815 -0.898 3.000 0
6.014 -2.138 -1.177 5.000 0
6.347 -2.248 -1.135 6.000 0
6.676 -2.357 -1.082 7.000 0
7.082 -2.493 -1.030 5.000 0
7.533 -2.645 -0.972 2.000 0
8.022 -2.811 -0.904 3.000 0
5.997 -2.138 -1.182 5.000 0
6.305 -2.239 -1.136 6.000 0
6.664 -2.358 -1.088 7.000 0
7.055 -2.489 -1.035 6.000 0
7.494 -2.637 -0.976 3.000 0
7.984 -2.803 -0.909 3.000 0
5.974 -2.135 -1.185 4.000 29
0.000 0.000 0.000 50.000 0
6.634 -2.352 -1.091 6.000 0
7.023 -2.482 -1.038 6.000 0
7.462 -2.629 -0.980 3.000 0
7.948 -2.793 -0.915 3.000 0
5.958 -2.133 -1.189 4.000 29
6.257 -2.230 -1.142 6.000 0
6.604 -2.344 -1.094 6.000 0
6.997 -2.475 -1.043 6.000 0
7.425 -2.618 -0.984 2.000 0
7.917 -2.784 -0.919 2.000 0
5.937 -2.128 -1.192 3.000 29
6.239 -2.225 -1.146 5.000 0
6.586 -2.339 -1.098 6.000 0
6.969 -2.466 -1.046 6.000 0
7.394 -2.607 -0.988 2.000 0
7.887 -2.772 -0.925 2.000 0
0.000 0.000 0.000 50.000 0
6.210 -2.215 -1.147 5.000 0
6.565 -2.331 -1.102 6.000 0
6.934 -2.452 -1.048 6.000 0
7.357 -2.592 -0.990 3.000 0
7.854 -2.758 -0.929 2.000 0
5.886 -2.110 -1.195 3.000 0
6.194 -2.208 -1.151 6.000 0
6.538 -2.319 -1.104 6.000 0
6.905 -2.439 -1.051 6.000 0
7.348 -2.585 -0.997 3.000 0
7.814 -2.739 -0.932 2.000 0
5.869 -2.101 -1.198 3.000 0
6.167 -2.196 -1.153 6.000 0
6.516 -2.308 -1.108 5.000 0
0.000 0.000 0.000 50.000 0
7.316 -2.569 -1.000 2.000 0
7.778 -2.720 -0.935 2.000 0
5.849 -2.090 -1.200 4.000 0
6.150 -2.185 -1.156 6.000 0
6.493 -2.295 -1.110 6.000 0
6.856 -2.411 -1.057 6.000 0
7.293 -2.554 -1.004 3.000 0
7.762 -2.707 -0.940 2.000 0
5.841 -2.083 -1.204 5.000 0
6.137 -2.175 -1.159 5.000 0
6.473 -2.281 -1.113 6.000 0
6.833 -2.395 -1.060 6.000 0
7.261 -2.533 -1.006 4.000 0
7.733 -2.686 -0.944 3.000 0
5.821 -2.069 -1.205 4.000 0
6.110 -2.158 -1.160 6.000 0
0.000 0.000 0.000 50.000 0
6.817 -2.380 -1.063 7.000 0
7.241 -2.516 -1.009 5.000 0
7.703 -2.664 -0.947 3.000 0
5.808 -2.056 -1.207 5.000 0
6.103 -2.146 -1.164 6.000 0
6.435 -2.249 -1.117 6.000 0
6.800 -2.363 -1.066 7.000 0
7.215 -2.495 -1.011 5.000 0
7.681 -2.643 -0.950 3.000 0
5.788 -2.040 -1.208 4.000 0
6.084 -2.129 -1.165 5.000 0
6.422 -2.234 -1.120 6.000 0
6.785 -2.346 -1.069 6.000 0
7.187 -2.471 -1.013 5.000 0
7.661 -2.620 -0.953 3.000 0
5.777 -2.025 -1.210 4.000 0
6.066 -2.112 -1.166 5.000 0
6.407 -2.215 -1.122 6.000 0
6.772 -2.327 -1.072 6.000 0
0.000 0.000 0.000 50.000 0
7.626 -2.592 -0.954 3.000 0
5.765 -2.009 -1.212 4.000 0
6.067 -2.099 -1.170 5.000 0
6.392 -2.196 -1.124 6.000 0
6.753 -2.306 -1.073 6.000 0
7.157 -2.429 -1.018 5.000 0
7.615 -2.570 -0.958 3.000 0
5.758 -1.993 -1.214 5.000 0
6.048 -2.078 -1.171 5.000 0
6.387 -2.179 -1.127 6.000 0
6.735 -2.282 -1.075 6.000 0
7.143 -2.405 -1.020 5.000 0
0.000 0.000 0.000 50.000 0
5.746 -1.974 -1.215 4.000 0
6.038 -2.059 -1.172 5.000 0
6.364 -2.154 -1.127 6.000 0
6.725 -2.260 -1.077 6.000 0
7.127 -2.380 -1.022 5.000 0
7.587 -2.518 -0.962 2.000 0
5.742 -1.957 -1.217 4.000 0
6.028 -2.038 -1.173 5.000 0
6.357 -2.133 -1.128 6.000 0
6.711 -2.236 -1.078 7.000 0
7.118 -2.356 -1.024 6.000 0
7.572 -2.490 -0.964 2.000 0
5.733 -1.937 -1.217 5.000 0
6.022 -2.018 -1.175 4.000 0
0.000 0.000 0.000 50.000 0
6.706 -2.213 -1.080 6.000 0
7.112 -2.331 -1.026 6.000 0
7.554 -2.459 -0.965 2.000 0
5.723 -1.915 -1.217 4.000 0
6.014 -1.996 -1.175 5.000 0
6.342 -2.088 -1.131 6.000 0
6.691 -2.186 -1.080 6.000 0
7.096 -2.301 -1.026 7.000 0
7.539 -2.428 -0.966 2.000 0
5.714 -1.893 -1.218 4.000 0
6.009 -1.973 -1.176 5.000 0
6.328 -2.061 -1.130 5.000 0
6.689 -2.161 -1.081 6.000 0
7.092 -2.275 -1.028 6.000 0
7.522 -2.395 -0.966 3.000 0
0.000 0.000 0.000 50.000 0
6.005 -1.950 -1.177 5.000 0
6.326 -2.037 -1.131 6.000 0
6.676 -2.132 -1.081 7.000 0
7.082 -2.244 -1.028 6.000 0
7.516 -2.365 -0.967 3.000 0
5.708 -1.848 -1.219 5.000 0
6.002 -1.926 -1.177 6.000 0
6.323 -2.011 -1.132 5.000 0
6.673 -2.105 -1.082 6.000 0
7.077 -2.214 -1.029 7.000 0
7.517 -2.334 -0.969 4.000 0
5.704 -1.824 -1.219 4.000 0
5.995 -1.899 -1.177 5.000 0
6.313 -1.982 -1.131 5.000 0
6.671 -2.076 -1.083 6.000 0
7.072 -2.183 -1.029 7.000 0
7.507 -2.299 -0.968 5.000 0
0.000 0.000 0.000 50.000 0
5.999 -1.875 -1.178 5.000 0
6.311 -1.954 -1.132 5.000 0
6.668 -2.047 -1.082 6.000 0
7.074 -2.153 -1.030 7.000 0
7.500 -2.265 -0.968 5.000 0
5.706 -1.776 -1.220 5.000 0
5.999 -1.849 -1.178 5.000 0
6.311 -1.926 -1.131 5.000 0
6.674 -2.019 -1.083 7.000 0
7.069 -2.120 -1.029 7.000 0
7.492 -2.228 -0.967 5.000 0
5.709 -1.751 -1.220 5.000 0
5.995 -1.820 -1.177 5.000 0
6.319 -1.900 -1.133 5.000 0
6.666 -1.986 -1.082 6.000 0
7.061 -2.084 -1.028 7.000 0
0.000 0.000 0.000 50.000 0
5.708 -1.724 -1.219 5.000 0
5.998 -1.792 -1.177 5.000 0
6.311 -1.867 -1.130 5.000 0
6.665 -1.953 -1.081 7.000 0
7.068 -2.052 -1.029 7.000 0
7.500 -2.159 -0.967 5.000 0
5.711 -1.696 -1.219 4.000 0
6.001 -1.764 -1.177 5.000 0
6.316 -1.837 -1.131 5.000 0
6.663 -1.919 -1.080 7.000 0
7.072 -2.018 -1.028 7.000 0
7.500 -2.122 -0.966 6.000 0
0.000 0.000 0.000 50.000 0
5.998 -1.733 -1.175 5.000 0
6.310 -1.804 -1.128 5.000 0
6.672 -1.888 -1.080 6.000 0
7.076 -1.983 -1.027 7.000 0
7.503 -2.084 -0.966 6.000 0
5.706 -1.636 -1.215 5.000 0
6.009 -1.704 -1.175 5.000 0
6.321 -1.774 -1.129 5.000 0
6.675 -1.854 -1.079 6.000 0
7.076 -1.946 -1.026 7.000 0
0.000 0.000 0.000 50.000 0
5.710 -1.607 -1.214 5.000 0
6.013 -1.673 -1.174 5.000 0
6.331 -1.742 -1.128 5.000 0
6.683 -1.820 -1.078 6.000 0
7.078 -1.908 -1.024 7.000 0
7.516 -2.007 -0.964 6.000 0
5.717 -1.577 -1.213 6.000 0
6.020 -1.642 -1.174 5.000 0
6.335 -1.708 -1.127 5.000 0
6.688 -1.785 -1.077 6.000 0
7.089 -1.872 -1.023 7.000 0
7.525 -1.967 -0.963 6.000 0
0.000 0.000 0.000 50.000 0
6.023 -1.609 -1.171 5.000 0
6.337 -1.673 -1.125 6.000 0
6.703 -1.751 -1.077 6.000 0
7.101 -1.835 -1.023 7.000 0
7.533 -1.927 -0.961 6.000 0
5.724 -1.514 -1.210 6.000 0
6.026 -1.575 -1.170 5.000 0
6.348 -1.640 -1.124 5.000 0
6.704 -1.713 -1.074 6.000 0
0.000 0.000 0.000 50.000 0
7.534 -1.884 -0.958 6.000 0
5.732 -1.483 -1.208 7.000 0
6.038 -1.543 -1.169 5.000 0
6.363 -1.607 -1.124 5.000 0
6.715 -1.676 -1.073 6.000 0
7.116 -1.757 -1.019 7.000 0
7.547 -1.843 -0.957 7.000 0
5.747 -1.452 -1.208 5.000 0
6.044 -1.508 -1.167 4.000 0
6.360 -1.568 -1.120 5.000 0
6.726 -1.639 -1.071 6.000 0
7.126 -1.717 -1.017 7.000 0
7.565 -1.803 -0.956 6.000 0
5.755 -1.419 -1.207 6.000 0
0.000 0.000 0.000 50.000 0
6.379 -1.534 -1.120 5.000 0
6.737 -1.601 -1.069 6.000 0
7.133 -1.675 -1.014 7.000 0
7.568 -1.757 -0.952 7.000 0
5.754 -1.384 -1.203 8.000 0
6.067 -1.440 -1.164 5.000 0
6.396 -1.499 -1.119 5.000 0
6.741 -1.560 -1.066 6.000 0
7.143 -1.634 -1.012 7.000 0
7.573 -1.712 -0.949 7.000 0
5.764 -1.350 -1.201 8.000 0
6.070 -1.402 -1.161 5.000 0
6.405 -1.461 -1.117 5.000 0
0.000 0.000 0.000 50.000 0
7.155 -1.591 -1.010 7.000 0
7.590 -1.668 -0.947 7.000 0
5.771 -1.314 -1.199 8.000 0
6.073 -1.364 -1.158 5.000 0
6.412 -1.421 -1.114 5.000 0
6.771 -1.482 -1.063 6.000 0
7.179 -1.551 -1.009 8.000 0
7.596 -1.622 -0.944 7.000 0
5.785 -1.280 -1.197 8.000 0
6.098 -1.330 -1.158 5.000 0
6.426 -1.383 -1.112 5.000 0
6.776 -1.439 -1.060 6.000 0
7.179 -1.505 -1.005 7.000 0
7.614 -1.576 -0.941 7.000 0
5.795 -1.244 -1.195 9.000 0
0.000 0.000 0.000 50.000 0
6.441 -1.344 -1.110 6.000 0
6.797 -1.399 -1.059 6.000 0
7.194 -1.461 -1.002 7.000 0
7.619 -1.528 -0.938 7.000 0
5.808 -1.208 -1.193 10.000 0
6.120 -1.254 -1.154 5.000 0
6.452 -1.304 -1.108 6.000 0
6.811 -1.357 -1.056 6.000 0
7.203 -1.416 -0.999 7.000 0
7.636 -1.481 -0.935 7.000 0
5.831 -1.174 -1.193 10.000 0
6.127 -1.215 -1.150 5.000 0
6.462 -1.262 -1.105 6.000 0
6.817 -1.313 -1.052 6.000 0
7.214 -1.370 -0.996 7.000 0
7.648 -1.432 -0.932 7.000 0
5.834 -1.134 -1.190 10.000 0
0.000 0.000 0.000 50.000 0
6.479 -1.222 -1.103 5.000 0
6.823 -1.268 -1.049 5.000 0
7.233 -1.325 -0.993 7.000 0
7.663 -1.383 -0.928 7.000 0
5.858 -1.099 -1.190 11.000 0
6.150 -1.135 -1.145 6.000 0
6.491 -1.179 -1.100 6.000 0
6.836 -1.224 -1.046 6.000 0
7.237 -1.276 -0.989 7.000 0
7.676 -1.334 -0.925 7.000 0
5.858 -1.058 -1.185 10.000 0
0.000 0.000 0.000 50.000 0
6.505 -1.138 -1.098 5.000 0
6.850 -1.179 -1.043 5.000 0
7.249 -1.229 -0.985 6.000 0
7.690 -1.284 -0.921 7.000 0
5.882 -1.021 -1.185 11.000 0
6.180 -1.055 -1.141 6.000 0
6.513 -1.094 -1.094 5.000 0
6.859 -1.133 -1.039 5.000 0
7.266 -1.182 -0.983 6.000 0
7.704 -1.233 -0.918 6.000 0
5.898 -0.982 -1.183 11.000 0
6.186 -1.012 -1.137 6.000 0
6.515 -1.048 -1.090 5.000 0
6.876 -1.088 -1.037 5.000 0
0.000 0.000 0.000 50.000 0
7.724 -1.183 -0.915 7.000 0
5.895 -0.939 -1.178 10.000 3
6.198 -0.970 -1.135 9.000 0
6.530 -1.004 -1.087 5.000 0
6.884 -1.041 -1.033 5.000 0
7.285 -1.082 -0.975 5.000 0
7.747 -1.132 -0.912 7.000 0
5.884 -0.895 -1.171 13.000 3
6.204 -0.926 -1.131 8.000 0
6.537 -0.958 -1.083 5.000 0
6.899 -0.993 -1.030 5.000 0
7.308 -1.034 -0.973 5.000 0
7.758 -1.079 -0.908 6.000 0
5.872 -0.850 -1.164 22.000 3
6.216 -0.883 -1.128 8.000 0
0.000 0.000 0.000 50.000 0
6.910 -0.946 -1.027 5.000 0
7.317 -0.983 -0.969 5.000 0
7.779 -1.026 -0.906 6.000 0
5.886 -0.809 -1.161 37.000 3
6.232 -0.840 -1.126 8.000 0
6.560 -0.867 -1.077 5.000 0
6.925 -0.898 -1.024 5.000 0
7.337 -0.933 -0.967 5.000 0
7.788 -0.972 -0.901 6.000 0
5.906 -0.769 -1.161 53.000 3
6.240 -0.796 -1.123 9.000 0
6.577 -0.821 -1.075 6.000 0
0.000 0.000 0.000 50.000 0
7.355 -0.882 -0.964 6.000 0
7.811 -0.919 -0.899 6.000 0
5.927 -0.728 -1.160 54.000 3
6.247 -0.751 -1.119 9.000 0
6.579 -0.774 -1.070 6.000 0
6.949 -0.800 -1.018 5.000 0
7.376 -0.831 -0.962 5.000 0
7.832 -0.864 -0.896 6.000 0
5.939 -0.685 -1.158 62.000 3
6.260 -0.706 -1.116 9.000 0
6.588 -0.726 -1.067 6.000 0
6.966 -0.750 -1.015 5.000 0
7.383 -0.778 -0.957 5.000 0
0.000 0.000 0.000 50.000 0
5.946 -0.641 -1.154 59.000 3
6.269 -0.659 -1.113 9.000 0
6.594 -0.677 -1.063 6.000 0
6.978 -0.700 -1.012 6.000 0
7.398 -0.725 -0.954 5.000 0
7.868 -0.753 -0.890 6.000 29
5.960 -0.597 -1.152 61.000 3
6.274 -0.613 -1.110 9.000 3
6.605 -0.629 -1.060 6.000 0
6.996 -0.650 -1.010 5.000 0
0.000 0.000 0.000 50.000 0
7.876 -0.695 -0.886 6.000 29
5.979 -0.554 -1.152 42.000 3
6.289 -0.567 -1.108 11.000 3
6.618 -0.581 -1.058 6.000 0
7.015 -0.599 -1.008 5.000 0
7.438 -0.618 -0.950 5.000 0
7.900 -0.639 -0.884 6.000 29
6.013 -0.511 -1.154 23.000 3
6.268 -0.518 -1.100 16.000 3
6.623 -0.532 -1.054 7.000 0
7.023 -0.547 -1.005 5.000 0
7.459 -0.564 -0.948 5.000 0
7.924 -0.582 -0.882 6.000 29
6.034 -0.467 -1.154 11.000 3
6.250 -0.468 -1.092 30.000 3
0.000 0.000 0.000 50.000 0
7.030 -0.494 -1.001 5.000 0
7.468 -0.509 -0.945 5.000 0
7.940 -0.523 -0.879 6.000 29
6.027 -0.420 -1.148 10.000 3
6.271 -0.422 -1.092 47.000 3
6.644 -0.432 -1.049 7.000 0
7.040 -0.442 -0.999 5.000 0
7.484 -0.453 -0.942 5.000 0
7.946 -0.464 -0.875 5.000 29
6.033 -0.373 -1.145 10.000 3
6.304 -0.375 -1.094 56.000 3
6.658 -0.382 -1.047 9.000 0
0.000 0.000 0.000 50.000 0
7.497 -0.397 -0.940 5.000 0
7.975 -0.405 -0.874 5.000 29
6.040 -0.327 -1.143 10.000 0
6.310 -0.328 -1.091 59.000 3
6.675 -0.332 -1.046 10.000 0
7.063 -0.336 -0.994 5.000 0
7.507 -0.341 -0.937 5.000 0
7.978 -0.345 -0.870 6.000 29
6.055 -0.281 -1.142 10.000 0
6.309 -0.279 -1.087 54.000 3
6.676 -0.280 -1.042 9.000 3
7.072 -0.282 -0.991 5.000 0
7.525 -0.284 -0.935 5.000 0
7.999 -0.286 -0.869 5.000 29
0.000 0.000 0.000 50.000 0
6.329 -0.231 -1.087 43.000 3
6.689 -0.230 -1.041 9.000 3
7.076 -0.228 -0.988 9.000 0
7.552 -0.227 -0.935 7.000 0
8.004 -0.225 -0.865 5.000 29
6.059 -0.186 -1.136 8.000 0
0.000 0.000 0.000 50.000 0
6.677 -0.177 -1.036 11.000 3
7.092 -0.174 -0.987 5.000 0
7.558 -0.170 -0.932 5.000 0
8.017 -0.164 -0.863 5.000 29
6.069 -0.139 -1.135 6.000 0
6.367 -0.133 -1.087 10.000 3
6.657 -0.125 -1.030 19.000 3
7.105 -0.120 -0.986 5.000 0
7.557 -0.112 -0.929 5.000 0
8.040 -0.103 -0.862 5.000 29
6.082 -0.092 -1.135 8.000 0
0.000 0.000 0.000 50.000 0
6.660 -0.074 -1.027 40.000 3
7.107 -0.064 -0.983 6.000 0
7.569 -0.054 -0.928 5.000 0
8.045 -0.042 -0.860 5.000 29
6.094 -0.044 -1.134 7.000 0
6.371 -0.033 -1.083 9.000 3
6.680 -0.021 -1.028 59.000 3
7.118 -0.009 -0.982 6.000 0
7.573 0.005 -0.925 5.000 0
8.058 0.021 -0.858 5.000 29
6.095 0.053 -1.130 6.000 0
6.389 0.068 -1.081 8.000 0
6.709 0.084 -1.028 63.000 3
7.129 0.102 -0.979 7.000 0
7.593 0.123 -0.923 5.000 0
0.000 0.000 0.000 50.000 0
6.107 0.102 -1.130 7.000 0
6.402 0.119 -1.081 7.000 0
6.735 0.137 -1.030 47.000 3
7.139 0.158 -0.978 7.000 3
7.592 0.183 -0.920 5.000 0
8.087 0.209 -0.854 5.000 0
6.114 0.151 -1.130 5.000 0
6.411 0.170 -1.081 6.000 0
6.778 0.192 -1.035 24.000 3
7.140 0.215 -0.976 8.000 3
7.584 0.242 -0.918 5.000 0
8.077 0.272 -0.851 5.000 0
0.000 0.000 0.000 50.000 0
6.409 0.221 -1.079 7.000 0
6.771 0.245 -1.032 11.000 3
7.104 0.270 -0.970 16.000 3
7.583 0.301 -0.916 6.000 0
8.092 0.336 -0.851 5.000 0
6.121 0.250 -1.128 6.000 0
6.427 0.273 -1.081 8.000 0
6.761 0.299 -1.029 8.000 3
7.095 0.326 -0.968 31.000 3
0.000 0.000 0.000 50.000 0
8.092 0.399 -0.850 5.000 0
6.122 0.300 -1.128 8.000 0
6.434 0.325 -1.081 6.000 0
6.767 0.354 -1.029 7.000 3
7.108 0.383 -0.968 51.000 3
7.585 0.422 -0.914 6.000 0
8.096 0.464 -0.849 5.000 0
6.123 0.350 -1.127 5.000 0
6.434 0.378 -1.081 5.000 0
6.774 0.409 -1.029 7.000 0
7.112 0.441 -0.968 57.000 3
0.000 0.000 0.000 50.000 0
8.084 0.528 -0.847 5.000 0
6.118 0.400 -1.126 5.000 0
6.435 0.431 -1.080 5.000 0
6.770 0.463 -1.029 7.000 0
7.134 0.500 -0.971 49.000 3
7.590 0.544 -0.914 7.000 0
8.085 0.593 -0.847 4.000 0
6.122 0.450 -1.126 5.000 0
6.434 0.483 -1.080 6.000 0
